ply
format ascii 1.0
element vertex 1221
property float x
property float y
property float z
property uint8 red
property uint8 green
property uint8 blue
end_header
1.057606 3.069459 4.858449 141 133 118
-0.674935 2.890479 3.402442 209 212 219
0.128857 1.252446 -2.974468 92 86 95
0.300136 1.297164 -3.243981 38 29 27
-0.119647 2.488396 4.654951 143 138 130
0.678733 1.206871 -2.914480 0 0 0
1.379836 4.910641 1.021424 252 252 249
0.915675 2.664522 -3.035763 52 31 30
1.090560 1.906035 -2.572021 128 121 118
1.641199 3.342692 4.892091 174 169 150
0.188163 1.456246 -4.202652 144 96 67
1.112338 2.248148 -1.794711 108 95 85
0.879815 3.255467 -4.869064 111 77 64
-0.116134 3.326096 2.534313 219 223 231
-0.148114 1.974105 -1.438586 150 138 126
0.854419 1.945158 -2.548986 88 87 94
0.717804 4.842603 5.927536 211 211 217
2.205377 5.323943 0.690534 215 214 210
1.012546 1.188681 -2.864437 113 112 123
-0.467680 -0.283566 -0.724554 198 196 192
2.835593 3.692260 4.817432 167 161 153
0.288354 1.383112 -4.108608 143 92 66
0.190507 2.451488 -2.536999 152 131 130
-0.455888 4.108863 0.685776 231 228 223
2.288765 4.217677 3.512178 198 196 194
-0.112217 1.464732 -2.807069 183 181 182
-0.559296 1.111697 -4.539059 180 134 93
-0.951275 -1.154889 -0.750305 0 0 0
2.297852 5.580378 0.101280 188 183 182
0.158121 2.704606 4.658172 176 170 153
-0.846147 3.686481 1.434897 237 232 227
1.099273 2.053983 -2.496994 90 82 89
0.285646 4.356822 0.869076 213 211 206
1.738136 5.059467 0.548665 201 200 196
0.156259 2.739936 4.679781 176 170 153
-0.669324 3.391205 2.436541 253 253 250
-1.438455 1.046765 -0.744156 158 112 85
0.418493 -3.638505 -5.612084 27 18 21
-0.696962 3.545347 1.949481 238 236 230
1.415022 5.180486 -0.124163 129 118 115
0.969614 3.170983 -3.750905 145 107 79
1.231362 1.998413 -2.579684 103 101 107
2.520281 -1.849092 -0.319886 207 206 205
-0.089833 -1.141264 -3.689322 36 24 25
0.362304 2.814215 4.724152 134 130 111
0.816830 3.217931 4.733271 210 208 206
0.848803 -4.330173 1.385145 0 0 0
0.162534 12.117732 3.051382 210 205 198
3.089289 3.160475 4.679305 178 173 161
3.462110 4.275514 -1.011066 147 132 118
-1.304195 6.260833 8.510571 188 182 162
3.362362 -2.527408 -5.156647 56 46 54
4.365165 -3.590821 -0.688207 120 114 119
1.817400 3.428516 4.915733 191 185 168
-0.254052 1.876530 -1.904517 28 26 22
4.354419 -3.634056 -0.691772 148 142 149
1.370053 1.414014 -2.825418 187 181 188
-0.127869 1.443342 -2.817933 72 65 62
-0.388531 3.930971 1.003742 242 242 239
0.524930 2.351868 -1.284817 213 210 218
3.210345 -3.831165 2.308131 185 183 183
0.875115 1.263491 -2.805304 99 94 96
1.206804 1.420879 -2.942826 21 14 13
1.895700 5.358129 0.301056 199 199 196
1.202075 2.263556 -2.119910 70 55 45
1.143416 2.895862 -3.461544 118 89 79
-0.200809 2.061067 -1.516697 136 131 139
1.311557 3.319613 4.681847 146 141 141
2.074013 -1.683237 -1.262345 148 129 118
1.786582 5.059301 0.763469 248 248 244
-0.266359 1.640781 -2.619986 76 50 32
-0.191238 2.068365 -1.506261 135 132 138
0.906351 1.047958 -2.966320 191 167 145
3.384247 -2.475654 -5.240499 18 7 13
0.414659 1.069574 -2.896390 77 71 73
0.175559 4.089984 1.366907 253 253 250
3.150186 -5.801019 1.656129 115 113 114
2.868394 5.329143 -0.429073 133 120 113
2.821353 3.778191 5.049316 160 155 141
0.840802 1.140077 -2.861841 58 52 57
3.257840 2.665392 4.775236 200 196 184
2.204886 -4.716152 1.515660 90 85 92
-0.314299 1.577951 -2.496565 163 143 135
0.900531 4.880960 0.134876 193 192 188
-0.048414 1.315914 -2.881158 90 87 90
0.048220 1.100726 -2.970817 186 141 92
1.305066 3.148303 4.917816 125 120 110
-0.084925 4.862702 -0.800621 108 92 86
0.863289 4.771331 0.529698 246 246 241
-0.331496 4.345021 0.709468 251 251 247
3.641227 -6.077510 -6.735537 0 0 0
-0.014840 1.494782 -3.097387 58 45 41
2.579401 5.329876 1.301124 242 240 238
3.641227 -6.077510 -6.735537 0 0 0
0.774774 4.519172 1.179562 182 180 178
1.480074 4.753101 1.528032 214 214 209
0.015224 1.843336 -3.574859 144 115 99
0.215287 2.364711 -2.428957 0 0 0
-0.527843 3.236395 2.700921 230 234 240
0.610607 4.189384 1.608236 190 188 184
-0.409958 -4.096681 -4.272365 20 8 9
1.452557 4.716998 1.342942 218 216 210
1.281362 3.594734 3.819563 197 197 206
-0.064522 2.225846 -2.931221 0 0 0
2.661688 -1.771721 -0.273688 178 171 164
0.262207 2.442080 -1.250571 230 229 234
2.076392 3.700736 4.946779 178 173 165
0.323842 3.716954 2.574393 246 246 244
-0.922672 3.479339 1.901358 0 0 0
0.253183 2.322581 -1.268024 195 196 203
0.169658 2.608199 2.167913 198 199 206
1.465450 4.922044 1.084498 235 233 227
3.188668 -4.026483 2.173362 189 187 183
0.209916 1.270958 -3.931213 150 104 73
0.996307 4.334378 1.941634 243 241 235
1.666128 0.043032 1.793400 186 184 174
5.761729 0.348456 -4.841050 158 108 76
6.284403 -1.944963 -2.532788 63 56 58
-0.218266 3.681892 1.969199 204 202 200
0.063612 2.415556 -2.487686 146 123 121
-0.305018 1.891375 -2.398579 38 26 23
-0.312312 1.613944 -2.386391 86 51 30
0.376705 -1.760850 1.294622 204 202 201
-0.410879 4.422955 -0.454308 145 134 122
0.491996 3.743387 2.511674 251 251 249
-0.171663 0.462059 0.918190 0 0 0
2.004035 4.830643 6.177929 195 187 169
-0.534077 2.910275 3.399418 230 231 238
0.397791 -3.550305 -5.734815 33 20 18
1.355784 0.010700 1.763019 178 173 155
1.336213 1.464333 -2.753571 180 176 181
-0.018508 3.463726 2.486015 252 252 252
1.130810 2.045491 -2.467371 139 131 138
0.194031 2.308658 -1.284274 175 174 183
-0.081061 1.496964 -2.851335 167 162 164
1.013421 1.532278 -4.242131 121 94 83
-1.202363 3.944484 -0.313096 163 152 145
1.511066 4.868823 1.024999 208 206 202
3.293049 2.514093 4.625625 183 177 163
1.362809 2.085218 -2.689430 125 117 122
0.966763 1.136524 -2.900344 169 167 175
-0.103286 2.114861 -1.450194 182 178 184
0.175796 4.371541 0.762388 254 253 251
1.896590 5.109122 0.932319 253 253 251
0.027075 2.179442 -1.421812 197 196 199
1.501730 4.522727 1.970514 236 234 228
-2.487425 11.941415 3.466971 196 194 192
1.039963 2.038659 -2.409158 99 93 102
0.352815 2.335444 -1.195381 212 209 215
-0.703700 3.442622 2.058304 252 252 251
1.018236 1.297329 0.185872 220 220 218
0.206022 2.324480 -1.086502 212 209 217
1.088169 3.177528 4.688245 0 0 0
2.234141 5.028998 1.477839 242 241 234
0.624642 2.360360 -1.321808 213 211 215
1.966157 3.451622 5.058411 128 120 104
0.731112 4.304956 1.608645 209 207 205
3.796263 -4.961022 1.848964 208 205 206
-0.465537 2.617848 4.337083 220 220 222
-0.152140 3.661928 1.914011 238 238 234
2.504645 3.720762 4.915363 199 194 181
1.760662 3.961299 3.792043 213 214 219
4.820807 2.615024 -3.977893 161 118 98
-0.860303 2.435561 4.268625 216 217 224
0.727829 4.091295 2.137996 201 199 195
4.789114 2.623175 -3.926358 92 54 43
0.172036 -3.119354 -6.777156 189 156 122
1.096618 2.371160 -1.854891 25 16 10
0.980306 3.960792 2.795191 239 239 236
0.880165 1.335698 -2.755707 96 91 91
0.937817 2.301025 -1.591961 110 103 100
0.993301 -4.167791 -7.116176 25 10 10
2.009161 0.425209 -4.795426 191 158 117
-0.101683 1.337777 -2.968422 162 117 81
1.319909 5.133660 -0.350796 134 123 116
0.700839 4.620728 0.913690 207 205 200
1.256749 4.685114 0.789774 217 214 207
0.276255 2.398410 -1.354399 202 201 208
-0.020230 2.309083 -2.573712 133 109 100
0.573476 2.558271 -4.372433 156 136 126
1.789087 4.931024 1.141347 242 240 236
1.926707 5.202362 0.734990 244 243 238
2.490164 5.189542 1.263063 248 246 242
0.320047 -2.946644 -6.707600 167 120 81
2.750927 4.903637 1.704621 220 218 216
0.152099 2.290317 -1.298109 182 181 192
-0.655167 2.478024 4.358628 164 158 155
1.033316 4.530045 1.558974 251 251 248
-0.107367 1.464928 -2.811503 183 183 183
0.777112 4.381728 1.490991 255 255 254
2.980174 -4.091262 2.120202 154 149 148
-0.435099 4.018073 0.780536 196 194 190
2.211725 0.929961 2.019006 232 232 236
-0.128640 1.402499 -2.970497 40 16 12
3.859426 4.586443 -3.000741 20 8 4
0.923555 3.909548 2.091981 252 252 249
-0.128640 1.402499 -2.970497 40 16 12
0.002602 2.202892 -1.362357 160 157 167
1.122805 1.798265 -2.596186 136 130 130
1.002156 3.955940 2.662553 250 250 247
0.920596 1.043770 -3.043665 130 125 134
0.732312 4.356365 1.477684 120 119 116
2.218162 4.151350 3.692463 208 214 224
0.859735 1.041279 -2.958836 197 179 166
4.624404 2.767519 -3.834214 165 119 89
2.049358 -0.565121 1.090994 133 127 115
0.978852 3.246981 -3.762783 174 135 114
0.421338 1.037226 -2.950841 146 143 155
0.962484 1.110574 -2.878715 203 184 174
3.993745 2.677534 -3.187758 232 223 219
1.047553 4.591907 1.258663 242 240 238
2.946152 -5.417516 1.625043 103 100 104
1.176625 5.107703 -0.193874 124 112 105
0.061074 2.522368 0.552376 237 235 231
0.290384 2.907040 4.523307 211 210 214
2.248288 3.536421 5.153607 161 156 147
-0.063821 1.825649 -3.144948 147 101 73
0.958211 0.678331 2.315314 0 0 0
1.001122 4.431936 1.647707 209 207 201
3.334878 -2.366722 -5.231725 4 0 3
-0.139322 3.573680 2.348542 217 215 216
-0.247516 1.802779 -2.147931 185 180 179
3.058072 4.308089 1.593367 237 236 233
1.412523 1.823537 -2.685761 143 132 134
4.561909 3.057871 -3.522971 204 193 180
4.236605 3.779688 -3.516439 97 60 47
0.447786 1.078418 -2.892626 118 116 124
-0.339711 1.899765 -1.799525 152 147 144
4.361790 3.426274 -3.610870 84 51 34
2.109992 5.534028 -0.500334 122 104 94
-0.270573 1.933257 -1.749458 159 152 151
-1.691590 5.028524 -2.766858 147 129 112
-0.418377 4.439601 -0.402089 147 133 126
1.264618 1.609024 -2.675927 161 158 168
2.488313 5.305989 0.957238 244 244 239
1.256415 1.610621 -2.667424 161 158 168
-0.229566 1.781892 -2.170942 98 91 97
-0.828922 4.081148 -0.346657 133 122 110
1.311107 4.745058 1.377184 250 250 247
4.718670 -3.417822 -0.864426 139 133 135
1.463050 4.692039 1.257313 194 192 188
2.254218 5.080991 1.595110 238 234 229
1.202066 1.285251 -2.824001 194 193 198
0.345141 1.363523 -4.593836 39 18 13
5.727076 -0.420542 -3.961398 217 210 205
2.287497 3.280485 -3.709628 178 157 144
-0.065209 2.332320 -2.559835 195 159 118
0.030265 2.439414 -3.906889 180 137 95
1.376772 1.572224 -2.794377 94 87 89
0.792206 3.176988 -3.640112 179 141 109
2.786208 -2.194520 -5.865485 161 115 85
1.479468 4.363318 2.327777 247 246 242
0.065355 1.866483 -3.961236 155 135 120
1.006079 3.261986 -3.709517 210 177 154
2.969816 16.959303 1.453933 0 0 0
2.192858 -1.944679 -1.215750 51 31 23
1.000376 3.128094 -3.686788 204 174 144
-0.176449 1.469998 -2.948449 151 105 79
0.234605 0.327553 -0.810245 132 120 114
2.788138 5.430264 -0.290373 128 119 111
1.488709 3.412761 4.691396 209 209 206
-0.304471 2.020565 -2.966797 117 75 51
-0.061587 1.401402 -3.060008 138 124 117
-1.075484 3.934258 -0.253858 133 122 110
0.242974 4.476755 0.312615 203 201 199
0.260735 1.036179 -2.970198 137 131 138
0.157851 4.415984 0.320441 231 230 226
6.000703 0.216228 -5.022029 146 98 69
1.811467 5.139118 0.598053 246 244 240
1.499472 -4.581015 -2.005385 132 131 136
1.031004 4.773846 0.572632 208 208 202
-0.072548 1.367999 -4.174686 158 110 77
2.203614 4.338871 3.134423 222 223 226
2.536494 5.292394 0.857689 230 230 225
0.956086 2.646552 -3.002726 109 85 80
2.077910 3.654043 4.905135 186 180 163
0.862921 4.647249 0.724264 250 250 247
-0.141932 1.453667 -2.846850 140 128 125
0.429219 2.343733 -1.217255 210 208 212
1.358669 1.363958 -2.683357 141 134 130
1.037801 4.294139 1.732086 211 209 201
0.217271 1.474108 -4.633728 108 70 54
-0.686118 3.068724 -2.456447 30 5 0
-0.626369 3.608657 1.853831 237 235 229
2.721951 -5.362546 1.594288 105 101 106
0.770306 4.622095 0.971019 241 239 233
0.540830 2.966180 4.609388 184 178 166
-0.109729 2.126475 -1.410379 189 188 195
0.343266 2.327638 -1.251233 196 196 204
0.526014 4.086285 1.703017 214 212 204
0.498592 3.996598 2.094681 200 198 194
6.103347 -0.294588 -5.128569 90 63 47
0.553956 3.802624 2.642538 225 226 230
0.461087 2.355484 1.372741 251 251 247
-0.264021 2.002022 -1.605443 107 102 104
1.340218 2.600886 -4.803486 174 159 150
1.218080 1.700838 -3.096580 44 35 35
4.493185 -3.242027 -1.438118 117 109 114
0.488670 4.576502 0.672057 229 227 221
-0.276354 3.387314 2.448859 251 251 251
2.915905 -3.973752 2.185037 179 175 174
0.188828 6.841510 1.972918 0 0 0
-0.149394 3.206322 3.065141 200 204 214
1.917077 5.429327 -0.067702 129 118 111
-0.182378 3.388890 2.727096 219 223 229
-0.036907 1.268949 -2.943159 67 60 60
0.415804 -1.403687 -0.110380 0 0 0
1.523409 1.954299 -4.212584 21 6 8
0.884970 2.678142 -3.013072 56 41 39
-0.640008 4.574460 -0.826774 125 110 99
6.160760 -4.181243 -12.293084 196 159 131
0.304086 3.421666 3.282140 200 200 200
2.008106 5.266770 0.763152 203 201 195
0.338283 0.985464 -3.121445 158 150 157
1.280072 0.643358 2.404819 174 170 151
2.367790 5.350160 0.866619 254 254 254
3.281106 4.469584 -0.026140 202 201 200
0.621469 2.550392 -1.691302 201 167 136
1.015268 3.237368 4.700766 216 211 210
2.278185 5.701633 -0.353727 151 141 134
-0.224168 2.143273 -0.767572 0 0 0
0.633614 2.165786 -4.167285 117 90 80
2.550271 5.466097 1.057681 250 250 248
3.327053 -2.412589 -5.060725 13 3 9
0.522951 4.830263 6.284207 211 209 210
-0.291467 1.836730 -2.153115 154 142 138
-0.033578 1.250314 -3.011536 161 119 89
0.612372 0.956384 -3.055701 199 181 171
2.677579 5.180840 1.228135 252 252 252
-0.677653 4.168991 0.339729 231 231 231
1.413676 1.484733 -2.781370 205 186 166
1.317809 2.272531 -2.343770 77 49 33
-0.119390 3.688212 1.986373 205 203 199
0.508308 -0.691833 1.001626 105 100 102
1.585129 4.924244 1.076145 203 201 195
0.503333 2.313200 -0.338540 192 187 186
0.470147 -1.552822 1.235606 114 112 115
-0.913612 2.385834 4.304917 126 119 114
0.813709 3.095248 4.678423 151 142 135
1.166560 0.746995 -0.009569 201 199 197
-0.517346 4.563451 0.311410 247 246 241
2.445181 -4.966896 1.549922 102 99 103
-0.136871 -0.731023 0.847534 0 0 0
-0.945190 1.209787 0.905231 0 0 0
-0.158535 2.107248 -1.424598 166 163 170
1.709628 4.995651 1.100754 223 223 216
-0.053825 1.151300 -2.756552 0 0 0
0.498777 1.559036 -3.645471 164 146 136
-0.426194 14.922844 4.608722 239 239 233
0.513173 2.587956 -2.598987 207 180 157
-0.194370 2.097233 -1.473047 185 182 188
0.763165 4.164227 2.088517 235 235 230
5.229698 1.867914 -4.345553 159 111 80
-0.385139 3.725778 1.223351 242 240 236
0.769438 4.115298 2.200871 252 252 249
-0.198571 1.587297 -2.673059 151 141 136
-0.117591 1.374355 -2.999794 161 115 81
-0.194442 1.871346 -1.909251 101 97 105
-0.600856 2.553991 4.330995 216 217 228
2.080832 3.720186 4.971597 184 178 167
1.249453 2.044637 -2.434846 192 188 187
0.756887 3.139477 4.674801 215 213 207
2.239797 5.177854 1.065790 251 251 246
3.357284 4.144217 0.282168 226 224 220
-0.091048 2.151994 -1.416966 193 192 201
2.811451 4.898530 1.177537 231 229 223
0.769843 4.618062 0.968410 242 240 232
2.897803 -4.005616 2.175393 210 210 207
0.926361 2.988111 -3.380692 61 39 35
2.546186 5.192427 1.695799 246 246 241
0.487969 2.245774 1.321885 250 250 245
-0.054947 2.586511 -1.898117 99 78 74
0.270306 0.998445 -3.019422 194 175 155
0.708269 4.295473 1.752524 212 210 204
-0.857277 3.774893 1.421438 237 236 230
-0.179872 -1.990318 -6.934902 200 167 138
2.251447 5.331596 1.101125 250 250 245
1.955373 3.575583 4.960774 183 179 157
6.316816 -3.415188 0.703990 62 53 54
0.865722 2.690227 -3.004651 57 36 36
0.287245 0.595143 -0.207627 246 244 236
0.859309 0.988961 -2.946447 13 1 5
8.917879 -5.427036 -7.238446 45 33 34
6.041085 -3.962605 -12.044147 200 164 133
3.095031 4.974890 -0.728548 164 153 142
0.485599 2.360552 -1.248807 228 227 232
3.080731 4.845715 -0.358788 147 137 130
6.196130 -3.126590 0.029379 66 55 56
1.488532 2.069494 -4.397914 177 159 149
0.357370 4.322084 1.137606 242 241 237
-0.139350 1.424129 -3.000035 41 19 12
1.049869 4.589458 1.247333 240 239 235
1.341467 1.991308 -2.552374 131 101 84
-0.010856 2.202621 -1.350167 163 160 167
-0.277658 4.383812 0.284406 239 237 229
1.240713 2.133693 -2.336784 93 84 83
1.287844 1.817388 -2.641936 126 124 133
0.078809 1.345075 -4.441924 158 110 77
-1.196224 4.223830 -1.053378 119 101 84
0.458724 4.342861 1.319712 241 241 236
0.892695 2.632652 -3.010908 0 0 0
0.868090 4.946857 -0.126297 142 133 126
0.524973 4.023599 2.050676 229 229 222
0.043961 2.234889 -1.325558 180 177 185
0.212449 5.037454 1.329825 194 194 189
0.489672 3.895394 2.353207 201 201 198
3.290138 -2.590598 -4.874383 53 43 49
4.435423 7.761259 2.317023 230 228 224
2.260652 4.009944 4.003510 185 183 184
-1.880258 1.932745 0.846745 74 68 76
-0.628923 3.880461 1.163391 209 209 204
2.436117 3.758286 4.839775 219 218 219
0.141007 1.415192 -4.410196 148 98 72
4.849372 -4.305019 1.269338 72 64 69
2.865281 15.251643 16.919718 133 129 115
0.899411 2.999865 4.859220 134 130 118
-0.215874 1.526146 -2.679641 153 141 138
0.562214 0.983532 -2.969979 200 179 165
0.900037 1.125419 -2.883281 156 153 159
3.496166 -1.859429 -5.748095 144 111 89
0.827964 5.230331 -0.536043 114 101 94
0.870840 4.161969 1.746033 243 242 239
6.189673 -1.958281 -2.518090 63 53 53
4.215614 -4.007143 0.049360 129 127 128
-0.169756 4.530626 0.297329 195 193 189
1.392271 -0.064596 -1.016735 113 98 85
3.413768 -1.839260 -5.712926 143 105 83
-1.418057 1.225470 -0.169901 27 15 14
5.763863 -0.831868 -1.320512 121 112 115
-1.258047 1.328707 -0.273102 0 0 0
1.098566 2.187636 -2.262005 82 78 79
1.665874 4.797277 1.136289 206 206 200
0.776364 4.806873 0.444793 233 233 229
6.208778 -0.046786 -5.793679 187 148 111
1.936070 4.926210 1.484981 236 234 229
2.121899 5.198267 1.023068 230 228 223
-0.345901 1.876759 -1.983682 145 133 130
1.420488 3.364352 4.743139 214 210 202
1.528944 4.919111 1.139143 239 237 233
1.389547 1.592894 -2.788756 94 87 86
1.028960 3.053638 4.891972 129 123 105
5.317609 1.717879 -4.430968 162 113 74
2.334733 5.094172 1.223255 248 247 243
0.124636 2.276993 -1.307731 184 183 190
0.886832 2.972452 4.845086 139 134 122
1.087526 3.407985 0.857717 244 243 241
1.437737 1.797972 -2.668365 195 157 125
0.085895 2.251648 -1.294832 207 206 213
0.791158 2.336398 -1.357254 190 155 131
6.342551 -0.757544 -5.336065 143 108 89
5.954768 -0.054497 -3.984658 205 192 185
1.951320 5.179190 0.893465 211 206 201
0.684775 4.790883 -0.201175 173 167 160
3.357628 -4.722785 1.785903 207 205 206
1.266239 3.518306 4.029667 182 183 192
0.869433 2.734034 -3.099501 39 16 12
4.336649 3.591548 -3.584376 95 59 45
2.456016 3.815169 4.867791 179 176 175
3.291052 -2.054421 -5.614402 58 48 51
5.923583 -0.161598 -3.842826 241 239 231
2.641032 3.682760 5.088588 156 150 137
2.016913 3.575377 4.864741 191 185 173
-0.718807 -1.067473 0.280529 78 72 75
3.376041 5.467213 -1.954026 140 123 106
1.359806 3.353762 4.769886 177 172 161
0.643609 1.020013 -2.965588 167 161 168
0.139365 4.232599 1.115049 208 206 200
3.063931 4.987682 -0.721931 137 124 112
0.697811 -1.024242 -3.052417 52 44 49
0.103958 4.280780 0.827804 219 219 215
2.026561 3.466118 4.999428 139 131 118
4.644938 -3.360049 -0.847298 131 126 128
5.768167 -0.695116 -1.506899 229 227 225
0.487395 3.791925 2.673194 216 214 210
2.717500 5.637153 0.422059 221 219 217
5.889802 -0.034821 -3.845802 206 196 190
3.122035 -3.849399 2.329617 223 221 220
0.100006 2.783207 4.535659 189 184 170
1.353278 1.527456 -2.810990 65 59 62
0.992863 2.298210 -1.666496 83 75 73
1.148770 1.733171 -2.636667 86 81 88
0.935451 3.178465 -3.797315 194 161 131
3.263929 -1.881709 -6.139513 168 122 85
0.454898 1.169804 -2.854032 90 84 86
0.802947 2.407041 -1.397679 26 18 15
-0.468480 -1.675675 0.778952 0 0 0
3.695850 4.300141 -1.108049 161 150 137
-0.077412 2.075584 -1.434682 73 68 67
-0.534604 -1.447961 0.789268 0 0 0
0.166639 4.617004 0.364479 247 247 247
3.432355 2.569712 4.441501 243 244 245
3.393791 -3.311756 -3.409559 48 42 47
-0.459595 -1.731718 1.101909 0 0 0
0.464270 4.344708 0.910026 144 142 140
1.456156 5.069435 0.688705 245 244 241
0.573141 2.768846 -3.949569 176 136 95
0.135446 1.060715 -3.021879 185 145 106
0.204949 4.995112 -0.774279 97 81 70
1.815943 5.079056 0.925228 249 249 245
5.897762 -0.742785 -1.685721 216 210 207
0.888467 2.705609 1.478070 242 242 237
2.123255 5.191695 1.089599 231 229 223
3.599759 -1.913050 -5.867200 150 112 92
-0.460646 5.183033 0.842062 240 240 240
2.486062 5.175862 1.252832 238 238 231
2.211169 -3.053503 -4.540230 25 12 19
1.028333 4.520831 1.216790 231 229 226
0.571020 3.044017 4.629592 221 219 214
6.065584 -0.251813 -4.267917 195 184 169
-0.327201 3.491987 -5.301298 127 102 91
3.645248 3.175004 0.938333 164 155 147
3.750635 -4.080489 1.159746 80 74 79
1.514826 4.845377 1.534807 226 224 222
5.766212 -0.761115 -1.334042 240 235 234
-0.131182 2.661784 -4.483072 100 71 58
-9.114028 24.556915 12.261272 209 209 204
4.587455 -3.224518 -1.405397 105 100 103
-0.309064 3.275721 2.428057 249 249 249
2.661275 -5.170084 1.583529 123 119 124
0.935253 4.017349 2.467915 243 243 242
2.726362 3.863552 5.029776 190 186 178
1.287747 0.665079 0.873828 207 202 201
-0.293261 4.483106 -0.039733 190 183 180
3.328085 -3.810004 2.183311 183 178 180
-0.392444 3.399702 2.491695 193 191 189
1.792024 3.494376 4.748098 165 160 157
0.377343 3.588648 2.569269 207 202 201
2.704877 5.455522 0.764000 252 252 252
3.039272 -3.624592 2.240707 185 180 182
-0.061286 2.172208 -1.373313 147 144 152
3.404754 2.111863 4.451563 127 120 108
2.027829 3.459938 5.029603 137 131 114
0.961591 2.060726 -2.080798 172 160 155
1.451533 4.811906 1.064420 240 238 234
1.810363 -0.299879 1.414845 130 125 116
1.260046 2.061532 -2.400715 142 130 129
1.401955 1.915049 -2.624481 190 158 136
3.187876 4.790368 -0.729891 129 116 104
-0.166193 2.710364 4.444840 151 145 145
0.671065 0.997280 -2.964672 219 197 181
0.817715 2.355971 -1.358672 180 144 115
0.266200 -3.166384 -6.170159 80 58 48
2.625599 -1.362626 -3.920633 210 198 197
2.757778 -5.066003 1.598370 109 103 110
2.541398 5.501181 0.779204 248 247 243
0.522630 2.966606 4.663494 180 174 153
0.451277 1.502156 -2.711982 150 149 156
0.469436 -3.287807 -6.350986 21 8 7
1.359034 1.449851 -2.764900 97 97 108
1.290046 1.964158 -2.560961 189 190 195
0.269923 2.354616 -1.289805 209 213 222
3.457541 -4.200457 2.352417 74 72 73
2.188223 -3.122692 -4.717514 42 33 34
0.083174 2.228497 -1.315202 189 188 193
2.543215 5.483976 0.777100 240 239 235
0.889118 3.021710 -4.896713 98 64 51
-0.307332 1.802206 -2.523262 142 124 114
0.869247 1.550575 -2.694854 115 110 109
6.523709 -5.060205 1.194597 70 63 63
6.523709 -5.060205 1.194597 70 63 63
0.575672 2.389462 -1.735883 220 219 226
-0.893053 4.269200 -0.014377 179 172 165
-0.792291 4.315205 -0.109146 172 167 160
0.929563 2.070051 -2.356912 90 87 95
3.024234 4.440884 0.546369 210 207 204
1.170906 3.161402 4.830912 174 169 151
0.309776 2.467879 -1.927713 177 169 176
1.283572 4.316566 2.267808 250 250 247
1.066108 1.994299 -2.545724 73 65 61
6.537190 -4.155733 2.013998 55 50 52
2.166273 4.500926 2.785029 209 208 209
1.605157 5.416866 -0.529768 162 153 145
6.537190 -4.155733 2.013998 55 50 52
0.581962 1.531295 -2.782439 125 123 133
0.388416 -2.562841 -7.632203 181 136 94
0.541025 3.873034 2.445887 226 227 232
1.919580 5.410964 -0.071577 129 118 111
5.158533 2.061795 -4.451135 183 140 98
0.989880 3.222218 -3.725825 57 39 26
-0.122844 1.471089 -2.947169 153 141 138
0.078399 2.280891 -1.331638 218 217 224
0.327900 1.231006 -3.774739 75 47 30
4.227501 -3.173330 -1.956010 106 100 105
0.062935 1.240940 -3.104048 59 45 35
0.302508 1.280258 -3.476837 85 54 36
-0.235730 2.040845 -1.602174 156 152 154
-0.208921 2.077828 -1.505745 180 177 181
0.006040 1.765655 -2.596960 48 43 40
1.121034 1.969475 -2.600397 91 88 97
0.812411 1.108194 -2.905920 117 115 125
-0.601027 1.719102 -4.185259 184 146 106
0.991356 3.156482 -3.706926 193 159 128
1.015471 4.509742 1.425659 238 235 228
2.543045 5.129115 1.506777 242 240 233
-0.938816 -0.673840 -2.922390 172 125 86
-0.827204 4.039717 1.441572 245 245 238
0.542162 3.618983 3.081072 240 238 234
5.944796 -5.480828 1.316374 75 68 70
1.034734 2.126490 -2.555586 90 85 92
1.112549 2.144743 -2.518156 115 110 112
0.678187 0.935516 -3.073558 193 153 110
0.287879 3.014979 4.178793 185 182 183
-1.014763 2.435838 4.408464 199 194 189
1.461695 4.907931 1.097896 213 211 206
2.913665 5.153200 -0.168550 185 179 174
4.962355 -3.244137 -0.882918 114 109 109
-0.218037 1.633269 -2.598329 152 140 137
-0.270145 2.026865 -1.447091 175 173 174
3.621290 3.673255 -0.417764 155 144 132
-0.311583 1.762369 -2.098801 135 119 102
1.044909 2.174625 -2.430569 111 105 107
0.461395 2.352258 -1.369033 224 223 228
2.706972 5.503800 0.761975 254 254 253
-0.075738 2.158814 -1.388371 153 150 157
-0.075817 2.158794 -1.388405 153 150 157
0.858072 4.462185 1.335715 254 254 251
3.362488 4.243578 -1.003178 184 176 166
0.005151 2.219334 -1.319544 161 160 165
-0.005823 2.214185 -1.292655 205 204 209
0.246770 1.047029 -2.949117 129 126 133
0.596033 3.839561 2.561146 190 188 185
1.055811 6.177851 -2.328504 159 146 135
0.246509 1.047424 -2.951208 129 126 133
2.585788 4.641519 2.678841 254 255 253
0.570826 3.612827 2.886636 243 242 239
1.389578 1.606332 -2.727472 187 181 192
0.460925 4.953696 -0.741060 124 112 104
5.790641 0.229702 -3.823971 247 242 234
0.613808 3.054178 4.661242 182 176 162
1.475429 3.390652 4.738423 211 209 210
0.616838 -4.458736 -3.365583 43 34 37
5.054273 -3.090522 -1.192372 105 99 99
0.866234 1.097615 -2.960593 24 19 21
0.835656 2.729900 4.599963 123 116 108
4.926342 -3.328396 -0.398185 115 106 106
6.394639 -3.178650 0.444104 37 28 31
-0.281548 1.498492 -2.178726 77 49 33
1.430898 1.672117 -2.883259 87 65 58
0.709367 4.819957 -0.160523 139 128 123
-1.003403 4.116916 -2.514983 154 136 119
-0.563198 -1.549218 0.208511 76 71 75
3.241307 -6.352250 1.773242 202 197 199
0.177238 1.021558 -2.963906 173 132 94
1.111138 5.025374 -0.101458 168 161 152
1.960704 1.232313 -0.598015 125 115 110
5.899423 0.318741 -4.928424 147 104 80
1.876565 5.354670 0.066727 148 141 134
0.760013 4.777626 0.524982 237 237 232
5.813091 -0.853298 -1.366349 220 214 213
3.300854 -3.815996 2.264092 66 60 63
0.232657 1.032814 -2.906343 146 138 140
1.300343 4.858258 1.110449 248 246 241
1.406425 4.718384 1.312243 238 237 232
0.588313 0.957004 -3.053649 206 182 166
2.650507 5.238708 1.280606 255 255 252
-0.447671 3.927405 1.058942 203 201 202
1.417485 1.816177 -2.703139 204 201 208
-0.840693 3.941284 1.351588 225 225 222
0.559289 4.244586 1.626032 232 230 222
1.286455 1.483830 -2.694519 184 183 188
5.113969 1.853851 -3.999637 228 214 209
1.014526 4.269556 2.101045 242 240 234
-0.274134 3.495207 2.541192 251 251 251
6.410100 -0.654188 -5.317299 83 51 40
5.807825 -0.780735 -1.541953 217 212 211
5.104926 -3.229122 -0.901712 109 100 103
3.481089 5.437288 -2.880080 60 38 25
1.672923 0.316107 -5.147510 183 141 99
0.148621 2.589046 4.667500 207 203 193
1.656267 -1.004140 0.666907 157 151 140
0.043404 1.302519 -2.830410 100 95 104
-0.133821 2.550061 4.701377 204 199 190
0.947704 2.132099 -4.012089 154 129 118
-0.133116 1.484984 -2.777860 165 162 163
1.435646 1.695902 -2.758661 128 114 107
8.162276 -5.002642 -6.857666 46 33 34
0.225393 0.646818 -4.550584 161 107 66
-0.065273 1.463716 -2.775896 115 108 103
1.328715 5.130519 -0.147410 148 137 132
0.617930 2.380734 -1.372965 226 225 230
3.843256 4.825933 -2.095449 169 157 143
3.031333 3.230489 4.728793 179 173 164
-0.135117 2.261091 -3.193043 173 128 90
1.127558 2.614386 -1.915979 126 117 113
-0.247923 4.403904 0.327752 209 204 197
5.517278 0.988945 -4.784397 176 131 89
3.420646 -3.048128 -2.367395 93 88 90
0.690115 2.784067 4.202371 214 215 220
1.070279 3.789984 5.018669 179 174 171
0.923000 2.178759 -1.867270 187 163 150
2.551847 4.703657 1.770231 235 235 224
0.578083 3.162560 4.611030 174 169 171
6.644386 -1.200583 -4.967221 45 38 40
2.080241 5.120840 0.615154 227 225 221
0.787243 4.174278 1.943044 238 233 226
2.590852 3.645252 5.055028 174 168 155
-0.705963 9.274886 3.214090 255 255 255
-0.653416 -1.185709 0.792321 13 12 19
-0.007374 4.342826 0.761428 224 222 215
0.413153 3.556172 2.915407 244 243 240
-0.739599 -1.003276 0.786327 13 12 19
-0.623388 4.074034 0.716322 209 208 203
1.417817 3.812917 3.365164 222 224 233
1.863296 -4.793406 -2.527625 116 113 119
3.903684 -3.081859 -1.899830 157 155 159
0.496013 3.839430 2.174794 247 247 244
0.399150 1.222053 -3.341080 162 142 132
3.077194 -3.981169 2.131932 52 45 44
-0.311874 1.939837 -1.755450 97 88 88
1.383808 4.679956 1.087618 192 190 186
1.266316 1.523514 -3.094469 137 117 109
0.818917 1.032640 -2.952957 202 179 156
0.339125 3.887004 2.032153 214 212 208
0.111827 1.461388 -3.188560 55 43 40
5.902640 -0.782765 -1.617292 114 108 112
5.908956 -0.784873 -1.618753 114 108 112
-0.643090 3.530924 1.834535 0 0 0
1.387536 4.755162 -0.195465 148 137 132
0.114393 1.439014 -4.436868 141 92 63
0.556790 3.718462 2.783504 223 223 229
1.375452 5.116279 -0.120564 177 170 165
0.766787 2.243867 -1.590428 160 148 145
3.287424 -3.213654 -2.726511 83 74 79
-0.837607 2.997718 2.754134 241 241 236
1.282627 4.584897 1.251678 232 230 226
1.711247 4.913228 1.095451 242 240 236
5.812892 -0.747965 -1.502508 225 220 217
-0.115234 4.136974 1.171916 244 244 241
-0.791491 3.797326 0.985771 247 249 246
5.827936 -0.804824 -1.381217 223 221 218
1.029532 4.620506 1.491477 247 247 242
5.898989 -0.896683 -1.342664 126 119 121
-0.238443 3.023571 3.935653 198 197 200
-0.425595 3.601256 1.753517 204 203 200
-0.179166 2.362478 -3.305752 170 124 84
1.288282 3.722516 3.346918 205 209 219
0.185218 1.358049 -4.258707 141 91 57
1.151911 2.030971 -2.475009 145 139 146
6.006339 0.891510 -4.979033 155 105 76
5.865776 -0.860149 -1.623679 210 205 202
-0.270239 1.758554 3.583734 174 169 166
-0.139130 1.463941 -2.814040 58 49 47
5.869788 -0.960379 -1.383684 214 207 204
0.735231 1.582063 -2.698792 87 82 81
1.541083 -4.427725 -2.358720 114 113 116
-0.054316 1.506254 -2.738814 56 51 50
2.280891 4.974055 1.545967 207 205 201
3.321663 -4.452882 -0.047882 52 42 52
-0.732158 2.505731 4.442257 193 187 176
1.153470 1.731533 -2.628490 79 72 71
-0.220073 1.673144 -2.485589 162 156 155
-0.254820 1.958058 -1.674624 65 58 57
-0.060128 2.169451 -1.353491 202 201 207
1.115247 2.362963 -1.863278 103 93 86
3.366801 3.777526 0.389639 202 197 192
4.972479 1.952672 -4.140087 160 111 82
1.151678 1.730440 -2.628519 85 76 75
1.766283 4.997617 0.836541 218 216 210
5.039848 1.879005 -4.200009 163 113 84
2.410710 3.616928 5.137488 139 132 122
1.004050 4.692070 0.815626 218 218 211
5.799166 0.180477 -3.720917 240 235 228
0.205119 1.449324 -4.359975 70 43 36
2.222485 5.100811 1.247144 201 199 194
5.994981 -3.437017 1.522455 38 31 32
0.776976 1.417833 -2.747661 62 56 59
0.155119 4.273248 1.115706 234 232 230
-0.151315 1.475873 -2.791398 93 81 81
0.362311 2.338597 -1.162853 209 207 214
0.922918 1.385296 -2.754770 104 99 98
0.301569 2.005754 1.206722 245 245 245
0.797858 2.360270 -1.366793 163 153 161
-0.234423 3.573442 2.361449 225 223 224
0.819390 2.374294 -1.374244 238 235 231
3.601167 -2.010522 -5.913463 67 51 51
-0.662049 3.872648 0.986578 230 230 228
1.486616 1.863862 -3.888293 36 19 15
0.512039 4.216274 1.555980 201 198 194
3.289269 4.357691 0.347074 249 249 244
3.338890 -4.607845 -0.117721 196 193 197
-0.430972 -1.839970 1.138291 196 194 192
1.446146 -1.917167 1.033350 50 42 49
2.443739 3.602123 5.130617 202 200 194
0.967761 2.382341 -1.567678 156 142 132
0.851611 2.652841 -2.909722 95 76 79
2.989790 3.591269 4.940530 205 203 198
-0.059094 1.925566 -1.414825 40 31 28
0.158134 1.052663 -2.933664 192 172 161
3.370545 2.392770 4.663683 189 186 180
-1.896804 5.612205 -1.038994 115 96 81
0.944237 2.079495 -2.547701 83 81 87
3.293471 -2.241990 -5.058635 58 49 51
3.456359 5.283559 -1.631438 164 152 145
0.472218 4.290842 1.410872 242 242 237
0.394557 2.460110 -1.402980 226 223 231
0.560157 3.728474 2.890520 242 240 236
0.233754 3.594958 2.960695 227 231 237
1.044317 2.132245 -2.489793 67 66 71
3.216596 2.805454 4.482290 221 216 210
0.098744 2.782974 4.455635 180 174 173
0.824626 2.336715 -1.372286 193 154 121
0.106702 4.413029 0.313572 243 243 238
1.375892 3.129259 4.886287 139 134 125
-0.164352 2.261466 -3.058709 177 134 94
-0.058968 1.313706 -2.934708 109 104 107
0.832815 1.244336 -2.818385 102 97 99
-0.283370 3.407328 2.460464 249 249 249
0.832373 2.396374 -1.379709 193 158 143
-0.092232 1.739137 -2.457981 92 88 93
0.631517 4.440412 1.065017 189 184 183
-0.233509 1.861108 -1.907853 101 100 107
1.993755 3.576520 4.859352 157 150 141
-0.352836 1.758122 -2.067071 138 120 101
-0.088600 1.370287 -2.969213 153 133 118
3.096995 3.280816 4.697053 223 218 212
0.350803 1.255027 -3.341102 144 115 103
0.831876 2.245379 -1.661798 161 149 146
0.802036 3.131833 4.620258 153 147 145
1.876605 6.148049 -2.319039 33 14 10
0.457906 2.356102 -1.264334 232 231 236
-0.307602 4.476658 -0.448599 172 163 154
0.738337 1.050045 -2.921363 49 45 47
0.207047 2.299394 -1.224883 201 200 203
0.807620 2.362165 -1.375967 170 162 167
0.925741 2.687164 -3.014731 100 81 76
0.441288 -3.266839 -6.361111 52 32 20
2.113632 5.005660 1.156295 246 244 236
-1.290811 1.149401 0.415853 41 32 35
0.894718 1.397882 -2.758306 81 74 76
0.952138 4.664588 1.220242 190 189 188
1.211349 -0.116227 -0.268566 243 241 237
-0.684738 3.240153 2.628792 245 243 239
-0.060774 2.202781 -1.375906 211 214 219
0.553852 2.999632 4.550711 159 155 153
0.381803 2.912583 4.532446 212 212 210
-0.215365 -4.059529 -4.693123 37 22 27
2.731394 3.623888 5.180363 202 200 191
-0.345904 4.656024 6.308331 212 210 214
-0.094574 2.259733 -1.598263 187 186 191
-1.181241 4.150781 -0.543085 90 75 61
0.084745 1.373760 -3.829085 157 108 70
0.918902 4.813711 0.674885 231 231 231
2.200080 -2.338579 -0.973338 243 241 238
-0.062193 2.219077 -2.743786 150 127 119
0.329909 2.900203 4.499434 157 151 153
-0.216741 1.658823 -2.510463 163 156 151
-0.273666 1.577131 -2.684658 148 99 60
1.300674 2.063951 -2.440937 163 156 154
0.756701 1.416084 -2.749502 98 93 95
3.664043 3.980675 -1.029608 169 158 143
0.099858 1.189496 -3.056108 55 43 42
1.235250 4.332875 1.950118 204 201 195
1.535340 1.427212 -2.951008 206 189 182
1.171196 3.299255 4.735781 214 209 210
2.120245 5.623890 -0.195204 127 115 110
-0.732088 3.582198 1.765718 205 203 197
1.353872 1.868404 -2.620738 196 195 200
1.120131 1.150123 -2.927301 16 7 10
2.457356 5.110453 1.569538 211 209 205
1.032251 1.112193 -2.914769 211 195 190
0.945244 1.429303 -2.739134 71 65 68
0.558673 4.295371 1.451817 255 255 250
0.158126 2.325040 -1.305827 191 192 198
1.774622 4.279745 2.928731 219 220 229
3.491876 -5.613591 -6.385335 27 11 11
3.491876 -5.613591 -6.385335 27 11 11
0.370392 2.917095 4.541712 215 214 211
1.992234 -1.014668 0.571622 178 172 158
0.877527 1.950937 -2.449066 101 100 109
2.274730 -3.077071 -4.777258 47 39 44
1.791540 4.856131 1.249676 197 195 192
-3.192806 5.919013 -3.458127 63 37 19
0.251752 1.615069 -4.286418 146 93 65
-0.192118 2.030279 -1.525256 86 80 78
2.075853 5.468705 -0.155625 175 168 163
0.273572 1.411602 -4.042804 167 153 146
1.401134 4.985587 0.540103 245 244 240
1.282146 1.502298 -3.101565 53 41 36
-0.102170 1.535807 -2.747353 208 206 207
1.428820 5.118895 0.218016 194 192 194
2.092166 5.123054 0.842565 248 248 243
1.190000 1.304947 -2.782652 209 208 213
0.772092 2.971161 4.852988 122 114 104
-0.402159 3.962825 1.019170 242 240 237
-0.311935 1.870116 -1.963070 84 70 69
3.104259 3.141795 4.586008 229 231 234
2.935940 3.392401 5.058311 160 155 141
0.470699 -4.611125 -3.044136 59 52 54
1.365042 1.680244 -3.135815 114 97 87
1.756557 1.353292 3.055858 171 167 155
0.204498 1.444827 -4.252368 159 111 84
0.773065 0.850641 -2.909076 17 9 8
1.321382 1.596329 -2.695138 135 132 140
0.061065 1.555900 -3.616580 164 141 124
0.206272 2.326946 -1.289597 224 223 230
-0.201181 3.096933 3.634475 199 202 212
-0.619017 4.416282 0.264085 242 242 237
1.315805 1.474909 -2.740067 179 177 183
-0.195392 1.603141 -2.596607 183 178 176
1.155186 1.718585 -2.644166 123 116 114
1.032983 4.634463 1.268052 237 233 231
1.402234 3.324221 4.735542 175 169 160
2.829956 4.881136 1.037858 206 201 198
3.256398 -3.116525 -2.916541 68 57 61
0.486562 1.227193 -2.828561 87 81 81
-0.142850 3.669122 1.996220 249 249 245
-0.817298 3.418670 1.586850 239 235 227
1.865097 -4.327593 -2.327584 157 156 159
3.261421 4.515914 -0.434723 198 192 187
1.792138 4.312844 2.715275 223 224 229
0.121588 1.092360 -2.998264 121 109 106
4.732471 -3.322198 -0.991842 145 139 142
2.855114 -5.142712 1.614974 113 111 112
-0.820614 3.160818 2.968563 241 241 236
-0.104516 1.405997 -2.838151 66 57 49
3.163351 -3.985970 2.087638 179 174 174
1.357001 1.447830 -2.768882 158 155 161
1.359849 1.434000 -2.762876 218 196 179
1.097296 2.288786 -1.917733 96 89 86
0.386082 2.879823 4.540635 183 178 169
1.270955 1.387633 -2.715697 205 191 186
0.811315 4.918794 -0.223006 139 130 124
4.824719 -3.213356 -1.353471 134 128 133
-0.760147 4.207417 0.209276 234 232 228
1.371261 5.111564 0.135076 186 180 177
3.272249 -4.282861 -0.030840 186 183 187
0.471941 4.640316 0.603189 239 239 234
-0.034210 2.178798 -2.856807 148 124 106
1.806191 5.058952 1.195235 241 237 232
0.053304 2.224244 -1.286722 187 186 190
2.907035 6.552185 -8.113931 164 140 122
-0.897186 3.956104 0.977608 196 194 190
0.305380 2.330651 -2.652303 153 139 138
-0.616262 3.673348 1.888263 189 189 186
-0.133629 4.023415 1.139379 244 244 240
0.350628 2.347976 -4.375995 101 76 68
0.229242 1.670925 -2.199502 136 136 145
3.373579 4.270605 -0.503086 137 130 120
0.502769 3.472459 -4.891380 115 88 77
-0.044595 2.252773 -2.795916 179 137 94
0.864539 1.406676 -2.766088 106 101 100
-0.248844 1.717918 -2.403028 99 83 79
-0.076087 2.154030 -2.932816 169 128 95
0.687622 4.571447 0.675710 244 244 239
1.145790 2.262998 -1.998139 38 24 21
-0.284129 1.997617 -1.652510 157 151 151
0.055484 2.249154 -1.341732 217 218 225
3.397716 4.410672 -0.474948 152 142 133
2.899357 5.225705 -0.163232 151 144 140
-0.422118 4.060117 0.776192 248 248 241
3.336358 5.274768 -1.869051 134 119 98
1.182798 2.048970 -2.520210 139 134 138
0.601127 2.358520 -1.302225 212 209 214
-0.852403 4.417463 0.267524 223 222 218
0.570866 4.390018 1.135010 179 177 175
1.849430 -4.293126 -2.362837 134 132 138
-0.250086 2.017732 -1.602183 129 122 126
0.257646 2.910305 4.593047 174 169 156
2.210907 -1.759202 -0.118884 160 154 140
1.750866 4.776218 1.444096 202 199 193
3.128582 4.820513 -0.271189 175 168 161
-0.055926 2.182345 -1.350127 162 161 170
3.782880 6.053765 -6.157344 120 80 60
-0.033339 2.182206 -1.382271 162 161 170
3.259327 -3.174408 -2.778923 78 68 74
2.939042 -3.444592 1.119340 48 45 51
0.261801 1.022769 -2.986503 98 93 91
0.984933 4.728516 1.042118 190 188 183
-0.161613 1.520583 -2.729912 167 159 161
0.516259 3.921614 2.246281 247 247 242
0.843925 4.742995 0.482438 201 199 195
5.858695 0.394570 -4.803425 102 69 62
0.912433 2.703080 -3.076828 66 44 40
2.869472 4.713626 1.256251 208 206 203
0.924231 4.965523 0.584652 242 242 238
0.533300 1.044510 -2.795509 203 192 186
0.373119 1.182458 -3.304936 162 142 132
-0.713928 3.884869 0.607759 221 219 215
0.187861 1.473378 -4.402637 143 96 73
0.148168 0.605610 -4.837690 180 130 81
-0.677699 4.360290 -0.105104 178 173 170
0.133866 2.253748 -1.299843 180 179 186
0.307742 2.226960 -1.383591 197 193 194
1.305964 1.430872 -2.792978 157 155 162
0.772796 3.964622 2.511627 222 222 223
5.896011 -0.057140 -4.947991 157 110 81
2.749661 3.892441 4.886778 216 223 242
5.748420 0.213873 -3.917491 211 200 182
6.175626 -2.028579 -2.427206 251 249 245
3.346143 3.642532 1.071318 243 240 235
1.842632 6.513457 -2.165857 132 112 97
6.194428 -2.106415 -2.341790 201 192 192
-0.228328 1.612061 -2.849996 116 75 52
-0.122246 4.746513 -0.755205 153 144 137
6.195842 -2.107327 -2.342167 201 192 192
-0.119813 4.743841 -0.755373 153 144 137
-0.345838 4.017076 0.778968 193 189 185
0.192338 2.876999 4.575776 187 181 172
-0.289129 1.955080 -1.695719 119 110 108
-0.086458 4.703370 -0.108818 138 128 121
1.618561 4.817186 1.102179 195 193 189
0.992632 2.983438 4.831219 133 127 113
6.353253 -0.687777 -5.286242 82 45 32
-0.087916 1.672933 -2.618161 91 84 81
-0.086431 4.702844 -0.107593 138 128 121
-0.888101 2.425916 4.294756 182 179 184
5.712255 0.072506 -3.770799 207 196 181
-0.200932 -5.654410 -0.927715 78 66 72
0.419915 1.003762 -2.897508 202 184 171
1.402776 1.556728 -2.736000 0 0 0
4.861406 -4.745809 -0.008899 159 156 160
-0.252328 1.749537 -2.296576 20 11 11
0.334733 -5.972467 0.594029 96 89 91
3.811150 -4.645707 2.248539 187 179 182
-0.317715 4.449871 -0.480543 157 149 141
-0.190792 3.921987 1.232242 241 241 236
1.107353 3.242867 4.726855 161 155 147
6.280448 -1.026194 -4.993120 44 35 35
1.035637 4.331549 1.937899 248 248 243
1.139190 2.239284 -2.027061 82 79 77
7.047219 -15.471631 -2.224580 154 151 155
1.370566 1.830277 -2.647591 212 210 216
-0.727061 5.769580 0.585545 235 233 223
-0.293508 1.967950 -1.702508 123 116 113
1.429829 4.981525 0.570889 242 241 235
0.038979 -2.991091 -6.729008 196 162 131
5.697047 -4.060496 -0.131677 111 99 102
0.212093 4.271591 1.159395 244 244 242
-0.087918 2.213976 -2.848055 44 30 28
3.374545 3.401383 1.463546 184 179 176
2.366412 5.070984 1.647603 242 240 236
-0.107532 2.215210 -2.802055 44 30 28
1.546034 3.253302 4.955952 129 123 109
0.354819 4.864973 -0.441674 134 121 111
0.462700 2.508129 -2.078687 184 179 185
2.227514 3.610860 4.869902 166 158 147
0.431419 3.942834 2.138536 253 253 253
5.768453 0.420240 -5.051126 180 140 97
3.136032 -3.837317 2.180171 220 220 217
0.141200 1.463964 -4.425424 46 26 19
0.838367 5.192454 -0.621668 108 90 80
-0.409636 1.896377 -2.083909 0 0 0
1.100627 2.151153 -2.469587 131 126 128
6.401597 -3.621318 1.538670 45 37 36
-0.771796 4.323930 -0.483833 106 91 82
1.718578 5.003423 0.934063 213 211 203
-0.088042 2.072212 -1.343955 89 87 95
0.452827 4.435915 0.870604 241 241 235
0.714567 4.819175 -0.258752 122 111 103
1.191965 5.242601 -0.553260 116 101 92
3.314275 -1.927035 -6.238370 177 132 95
1.297839 4.444036 1.710023 241 239 232
0.467486 -4.571376 -2.910912 58 50 53
0.545494 4.016329 2.166869 245 245 245
-0.558280 1.074562 -4.539090 171 122 77
-0.293664 1.794128 -2.244988 167 156 152
3.404768 3.825151 0.994247 238 234 230
0.998972 3.228120 4.693494 209 207 205
6.410994 -3.746986 2.075456 226 226 221
0.996036 1.109596 -2.953837 10 3 5
0.140886 1.401042 -4.332190 159 110 77
-0.804376 1.925571 -0.866419 90 87 93
0.166221 -3.065664 -6.168813 117 68 55
1.286197 5.078682 0.675609 243 241 234
5.221951 -4.313235 1.356250 32 25 32
3.404702 3.384048 2.094000 233 235 238
-0.379909 4.129535 0.414302 239 235 221
5.760321 0.204391 -3.924667 208 197 178
2.215108 -3.148684 -4.640769 29 17 19
3.101912 3.278508 4.743701 217 214 208
-0.445056 3.977043 0.979285 187 185 184
0.067020 1.397229 -3.604573 72 29 17
2.595828 -3.230617 -4.033765 50 38 42
-1.493814 2.203429 4.033593 132 121 106
1.347799 -0.423512 -0.230031 239 237 232
1.789521 5.403878 0.786509 250 250 247
2.832333 5.565195 -0.433710 158 150 139
3.261021 -3.833768 2.292088 192 190 191
-1.695465 7.255059 9.549006 0 0 0
2.503289 3.784337 4.895814 220 218 212
0.569531 0.952930 -3.018722 190 154 114
0.300114 -5.812758 0.573659 94 88 92
2.077826 5.563218 -0.465222 159 148 139
0.802456 3.130208 4.620968 153 147 145
1.357794 1.993113 -2.551050 215 193 181
1.564038 1.949820 -4.184610 176 161 153
0.676417 1.044393 -2.884923 154 150 154
3.028046 -3.933675 2.160018 106 93 102
2.994555 -3.916682 2.168590 91 86 88
3.079159 -3.419708 2.208069 191 189 188
-0.123223 1.402940 -2.910048 106 90 77
-0.221415 -4.102149 -4.713387 51 43 45
6.711756 -3.639524 0.634490 81 73 72
6.293595 -0.750024 -4.905862 219 212 209
2.872252 -3.784168 2.233515 226 226 223
-0.445804 3.364936 2.511768 196 193 197
0.038889 3.626246 2.770971 234 233 228
2.933213 3.463624 4.817155 183 178 168
-0.285413 2.012333 -1.636124 155 150 150
3.049521 -3.761121 2.243316 183 178 180
-0.287806 1.895520 -1.771736 33 22 18
1.689805 4.065842 3.388061 225 224 231
6.380720 -1.095582 -4.686974 19 5 6
1.899574 -4.228226 -2.468522 150 147 153
-0.139764 1.360606 -2.708208 117 105 109
3.372621 -3.677037 -2.450783 175 174 179
-0.647191 4.217746 0.315056 248 248 243
2.358499 3.735286 4.886754 220 216 213
-0.092373 1.401996 -2.824081 133 130 134
-0.037396 1.217509 -2.875086 169 127 96
5.723979 0.589545 -4.788934 167 119 88
5.838145 0.370386 -4.833116 85 50 39
0.169676 4.283668 1.228385 252 252 250
-0.161666 2.674297 4.491944 138 129 121
6.003039 -0.095751 -5.038005 160 112 81
1.055187 4.566151 1.436729 203 199 195
-0.664593 2.496968 4.381464 160 154 153
1.268770 3.159595 4.958010 196 193 182
5.766478 0.111813 -3.787777 248 242 225
0.894206 3.039897 4.808619 176 170 153
3.059825 -3.959723 2.197200 106 93 100
0.067138 2.223546 -1.313193 187 186 189
2.191007 3.904546 4.471419 199 198 201
0.847598 1.348493 -2.776570 73 67 72
1.017402 2.205709 -1.944456 189 184 183
2.834971 3.729156 4.918456 204 199 190
1.429410 1.587324 -2.743400 73 65 63
6.193250 -1.994823 -2.542870 154 142 135
6.347052 -3.168453 0.413400 236 232 233
3.427569 2.612316 4.427776 221 219 211
1.363905 1.987404 -2.626461 156 142 137
3.405284 2.451245 4.322756 211 206 200
0.679627 1.039299 -2.978598 24 22 27
6.345704 -3.167859 0.413417 236 232 233
1.185269 2.057662 -2.481646 34 28 26
5.118939 -4.531960 1.951363 93 89 92
3.047240 -3.957094 2.256508 193 191 190
0.099896 1.470521 -4.452285 135 88 59
0.065064 1.907359 -3.734715 131 99 86
-0.305148 4.696490 -0.844467 94 79 68
0.109099 4.318760 0.518230 228 228 226
-0.197468 2.069187 -1.496865 165 164 167
1.264935 2.065412 -2.371276 215 191 179
0.410043 1.883846 -3.558494 177 157 149
-0.350838 4.342247 0.271625 235 230 223
0.759767 1.033497 -2.920793 201 188 178
-0.841580 4.290681 0.431608 222 222 217
6.309750 -0.640396 -5.287006 155 109 80
4.366213 3.373140 -3.432083 30 6 4
-0.425988 4.002742 0.779088 192 187 184
0.428944 -4.598754 -3.137612 58 51 53
0.327691 -5.479156 -0.460053 111 102 102
3.363687 4.210466 -0.770322 172 163 157
0.507007 4.199358 1.608907 199 196 193
1.282490 1.960548 -2.522786 208 207 212
0.841296 4.884265 -0.076488 176 169 161
0.147921 3.820987 2.066045 251 249 250
1.107715 2.278849 -1.936813 101 94 92
0.664390 1.050394 -2.831351 204 186 175
1.280815 3.764928 3.378184 205 209 219
2.789235 -1.214855 -4.701941 153 114 86
0.873854 4.635065 0.691114 251 251 248
-0.176001 3.017823 3.636067 197 201 209
5.768816 0.150229 -3.948543 203 190 171
6.417294 -1.181489 -4.648849 162 152 152
0.418868 -4.338420 -3.731984 36 25 23
1.150483 2.290805 -1.849525 143 125 108
-0.448233 1.859831 -2.023094 147 128 110
6.171327 -2.102844 -2.378665 57 45 46
0.327824 -4.461829 -3.065724 82 73 76
3.272896 -3.629911 0.097039 179 178 181
1.011875 4.225991 2.184420 243 241 235
1.565747 1.956965 -4.243259 168 149 140
0.323962 -5.729782 0.126311 99 98 94
1.680921 4.514782 1.310735 233 231 223
0.408439 -6.018398 0.558132 38 31 35
0.996500 3.877374 3.019309 223 227 231
1.457996 1.806818 -3.666920 179 159 151
3.173041 -3.799680 2.133289 199 197 195
3.380823 2.764392 3.715643 220 220 227
0.917772 1.030020 -2.943577 15 7 8
1.401423 2.666032 -4.883673 159 138 124
0.133931 1.071786 -2.939888 193 172 151
0.230744 1.025699 -2.993051 148 138 140
0.219717 1.025804 -2.948450 197 179 168
1.431267 1.819347 -2.792093 114 78 58
3.357388 -2.077251 -5.796966 82 69 61
2.194242 -3.023566 -5.512707 55 41 42
1.322589 2.195599 -2.561540 113 75 52
6.371179 -3.142459 0.398291 60 55 58
1.290850 4.242932 -5.909773 101 74 65
1.193663 2.293170 -1.994014 74 49 34
0.986131 1.117603 -2.971519 16 7 6
-0.259207 1.820063 -2.274852 85 80 76
-0.249608 1.696143 -2.484496 89 83 79
-1.148694 4.154912 -0.564952 133 119 106
0.047596 -1.671274 -9.538902 199 162 121
1.526441 5.115637 0.602576 225 223 215
-2.086748 14.259023 3.703948 0 0 0
6.548564 -1.288179 -5.441010 22 6 6
2.572701 5.403561 0.707832 243 242 234
0.648478 -2.995879 -6.366520 166 113 71
1.291276 2.051056 -2.489042 98 90 87
2.537152 5.284388 0.855470 231 229 223
4.186500 -3.050565 -2.448186 92 86 89
1.146441 2.433067 -1.862976 143 123 110
-0.737924 4.049303 0.629869 202 198 194
3.643667 1.306372 -3.194716 185 142 100
3.308585 5.457567 -1.541674 188 177 162
2.694235 5.378345 1.355363 209 207 208
-0.070761 2.337675 -2.961717 185 139 96
-0.277028 2.039254 -1.593115 168 164 166
-0.301350 1.802173 -2.026189 199 197 198
3.151346 2.849114 4.801862 162 156 142
2.713737 7.749866 -2.152265 116 101 92
0.159368 -3.240274 -5.967247 234 229 228
5.864337 0.058739 -4.006316 205 192 175
0.663299 4.273861 1.367209 190 188 186
-0.434826 4.025074 0.719037 198 196 190
-0.112584 2.242073 -3.161500 184 139 99
1.474123 4.674205 1.536638 209 207 200
