ply
format ascii 1.0
element vertex 1226
property float x
property float y
property float z
property uint8 red
property uint8 green
property uint8 blue
end_header
1.543121 1.820951 -2.631389 146 148 159
1.547868 4.879008 1.190001 189 187 183
-0.502591 3.438539 2.328469 230 234 238
2.822411 5.672451 -0.433620 123 105 92
3.207736 3.899285 4.794624 225 224 226
1.210588 2.155546 -2.579651 133 136 142
2.146359 4.988369 1.238955 207 206 200
3.691727 2.632461 4.033909 199 200 205
1.595831 4.038569 2.768204 213 216 225
1.365293 5.161040 -0.351864 114 101 91
1.010433 2.273088 -2.525914 84 79 81
0.723316 -0.469263 -0.423403 232 230 225
3.668921 2.544580 4.348641 209 208 211
2.313835 4.436752 2.919232 250 251 252
0.558322 5.012640 -0.381414 136 123 114
1.276387 5.391723 -0.572895 130 116 111
1.066858 1.136291 3.034108 173 167 150
0.835026 1.940617 -2.591192 104 104 118
1.568753 4.690360 1.550018 202 200 194
2.447667 3.691923 4.890694 237 241 241
0.552852 3.682911 2.891925 254 253 255
-0.513103 4.684703 -0.494795 128 115 103
0.751733 1.408011 -2.806017 152 158 168
1.252092 3.225354 4.815681 215 210 206
3.344462 3.579762 5.048871 204 202 198
0.847809 1.446280 -3.193642 21 12 15
0.659544 3.873109 5.572011 209 207 199
0.797416 1.914878 -2.624265 106 106 120
0.606712 2.886673 4.640090 182 175 166
0.802971 3.750970 2.965519 230 228 230
2.950958 6.719253 -2.287060 51 27 9
1.846158 -0.006453 1.761720 130 126 114
0.400858 3.107571 4.294465 206 207 212
3.967167 4.015767 -1.004925 132 113 93
3.428063 2.909406 4.674739 187 180 171
4.103995 4.637990 -3.140135 91 70 68
2.837137 3.436586 4.984319 167 163 151
2.066298 3.437353 5.053062 211 210 197
1.050977 2.103049 -2.572562 103 95 92
1.178028 4.348001 -3.353411 184 158 138
-2.954379 4.039219 -3.038268 64 36 17
0.854063 2.899770 4.804591 211 210 203
1.428428 2.000209 -2.663299 110 104 111
2.680056 3.024092 5.067862 196 191 184
1.154073 2.001398 -2.584584 121 114 111
1.311370 1.631825 -3.193243 17 3 3
0.600790 4.775223 0.461698 232 233 232
3.497938 4.852389 -0.760114 135 120 107
3.332305 5.222901 0.165539 189 187 187
0.564291 4.292090 5.774944 0 0 0
0.773477 1.234647 -2.882050 117 122 137
3.414184 2.969496 4.649334 231 226 221
0.850270 3.754584 2.718326 210 211 215
0.591607 4.728564 0.479702 202 202 202
3.128942 4.693995 1.234521 211 207 205
3.569288 2.907034 4.706042 237 237 238
0.478406 4.063142 1.316234 252 252 251
0.741206 1.599518 -2.741407 107 110 123
1.597805 5.211724 -0.143559 188 181 174
-1.789256 -0.889240 -0.433173 211 210 213
-0.134165 4.462867 0.344874 234 233 238
3.131284 4.712624 1.281723 211 207 205
2.316351 3.434267 5.207470 151 149 141
1.152112 4.497917 1.430037 249 249 249
0.069775 1.214944 -3.024054 187 186 193
-1.093531 4.203904 -0.552361 132 119 107
-0.109766 2.708813 4.629843 229 229 229
2.572910 5.137022 1.095124 244 246 246
0.537114 4.382905 1.083898 197 197 194
1.193528 4.069992 2.285035 252 252 252
-4.514212 -0.121111 -4.971743 105 71 60
2.555500 3.635425 4.933903 223 218 211
1.594836 -1.267550 -3.173762 0 0 0
2.780971 1.082443 0.033116 251 250 251
-0.619796 2.602998 4.521814 205 209 219
0.325404 3.489311 2.687951 202 205 213
3.469255 2.709039 4.763459 183 179 162
2.594564 5.762560 -0.343711 148 140 135
-4.759345 12.197678 3.641273 182 183 186
4.658428 3.412577 -3.968876 99 62 34
3.576923 4.633952 -0.777097 158 151 148
-0.339273 2.979819 3.516779 230 231 238
-0.638503 4.422606 -0.411897 195 193 196
0.076928 1.221184 -2.985087 50 41 39
2.476904 4.940161 1.460945 202 201 204
0.886791 1.685172 -2.732104 117 110 109
3.365197 5.007745 1.196742 239 237 233
1.466086 3.415045 4.203990 212 215 222
1.440921 4.385115 -3.283027 212 192 176
3.639795 4.012442 0.824996 209 207 203
0.809834 1.640592 4.502922 134 134 130
2.300602 1.980465 0.438354 237 237 237
-0.371360 1.947182 -2.374770 86 49 26
3.308444 4.970100 1.445549 246 248 248
1.213729 0.839492 2.679453 178 173 155
0.474470 4.368742 1.196194 229 229 229
3.580724 5.609764 -3.024758 102 63 35
3.306432 4.968350 1.445445 246 248 248
0.951048 4.630249 0.951480 210 208 204
3.671050 3.198044 4.438023 207 205 201
0.789521 1.206148 -3.108229 29 24 27
2.129257 4.862586 1.484967 244 244 244
0.289522 4.192361 1.009941 197 195 193
2.209817 3.350755 5.170389 146 143 137
0.180236 3.543984 2.589467 252 252 252
0.612456 4.207021 1.364489 237 237 237
-0.465323 4.080120 0.963252 197 195 193
2.270110 3.391353 5.226758 146 143 137
0.317445 3.407692 3.082093 183 184 193
0.759673 1.558713 -2.767691 99 102 117
-0.285503 9.384365 3.382082 235 235 232
-0.141901 2.185886 -1.659179 40 36 39
0.555360 4.105486 1.677259 243 243 240
1.814665 4.764538 1.258421 196 192 190
0.300377 4.036538 -3.486980 163 143 138
1.658794 3.259657 4.996635 172 168 149
-0.108906 5.839637 -2.538899 75 66 63
3.017973 6.927281 -2.252469 0 0 0
0.841490 2.837245 4.950684 161 159 157
1.563429 4.223109 2.174769 219 218 221
2.266712 4.998464 1.343989 198 194 190
-0.023859 1.432177 -2.932713 68 63 65
1.182735 2.410132 -2.011046 80 73 72
-0.784711 5.532675 -2.633708 98 77 76
0.080592 4.057135 0.968246 196 194 191
0.840139 2.833096 4.946702 161 159 157
-0.699450 4.068504 1.324703 228 228 226
0.136479 1.577892 -4.464517 10 3 2
0.667760 2.910054 -4.487483 149 133 132
1.779427 4.366374 2.363878 248 249 252
1.049149 2.921278 4.931159 168 163 150
3.648507 2.393919 4.550920 192 187 184
1.403841 4.057303 2.750185 252 252 252
1.264988 2.077498 -2.555063 86 87 94
-0.364805 3.863494 1.598404 241 239 234
3.379773 4.984130 -0.570530 142 136 133
2.901300 0.828058 0.688608 198 198 201
1.051592 2.930399 4.940125 168 163 150
1.886460 3.357915 4.939890 187 183 176
0.811853 2.837719 4.847497 129 122 111
2.645948 3.597940 5.145464 191 185 168
-0.036325 2.632057 4.761367 205 204 191
1.479483 4.027875 2.747721 246 247 251
-0.853806 2.414911 4.420927 183 178 171
0.406222 4.094280 -3.463684 187 166 161
0.655718 1.764561 -2.380779 69 64 63
1.439899 1.953389 -2.751777 151 151 158
1.500249 1.865824 -3.678698 186 170 161
-0.177111 3.391640 2.688611 201 202 207
-0.076123 2.599170 4.687716 182 176 156
-0.208428 1.977809 -2.819003 74 64 61
-0.265370 1.860700 -2.088464 142 123 106
2.567632 1.048662 1.045414 242 244 244
0.826763 1.498349 -2.777870 73 68 67
0.238751 1.100981 -3.007516 112 107 109
1.500995 2.074800 -2.424889 0 0 0
2.419328 5.755102 -0.392749 126 112 105
0.315393 3.821478 2.032127 216 217 220
2.409584 4.448043 3.182988 237 236 241
0.822375 1.503740 -2.779046 73 68 67
0.307530 1.083759 -3.017730 103 98 100
1.536515 4.126973 2.780926 252 252 249
1.274890 1.417164 -2.851959 51 53 66
-0.116584 4.123430 1.145988 246 246 245
2.776373 4.114699 3.940531 203 203 209
1.575099 3.268311 4.851817 161 155 142
0.944618 3.094803 -4.117827 170 153 149
-0.081480 1.809568 -2.538393 82 75 74
1.218464 1.619029 -2.779755 124 121 126
2.151743 5.163865 0.982993 253 253 251
-0.185660 1.789855 -2.486518 34 26 26
1.141054 4.679014 1.073174 197 195 192
0.267115 4.614766 -0.652146 214 214 214
0.113538 2.776027 4.591873 216 215 218
0.313161 2.823471 4.831493 210 209 196
-0.197965 1.838992 -2.496412 34 26 26
5.901004 -0.316704 -4.417438 173 160 151
2.503681 5.054286 1.526105 242 241 234
3.858144 4.454356 -1.073038 133 113 98
0.954661 4.375823 1.686329 209 207 205
2.523458 5.031607 1.357763 207 206 202
-2.791509 -0.462454 -0.590564 185 178 170
0.029290 3.782243 2.020598 238 238 234
3.246606 5.101232 -0.342629 140 134 132
2.043486 4.898846 1.302435 197 195 192
5.759299 -0.024097 -3.861895 206 199 190
0.086192 3.752419 2.074434 202 200 198
0.114259 1.567576 -2.785367 149 151 158
-0.149845 4.582742 -0.413720 165 156 148
1.878639 5.379116 -0.019289 137 132 133
1.555449 4.693554 1.228570 193 191 189
2.986777 4.948873 -1.456228 196 189 182
0.086192 3.752419 2.074434 202 200 198
-0.614954 4.470570 -0.408631 106 93 83
1.554775 4.688652 1.226995 193 191 189
3.572247 5.428789 -1.564216 196 189 182
0.178306 3.650297 2.678175 250 250 250
1.268519 3.712780 -3.597643 171 137 106
-0.483676 4.195961 0.511388 246 246 245
4.831603 1.921482 -4.213215 92 55 33
2.778474 4.959698 1.347359 208 206 204
3.118474 4.455201 0.372466 214 214 214
0.025381 3.552197 2.627570 251 251 251
0.746149 1.392920 -2.830659 140 143 155
0.131201 4.273623 1.188877 247 247 242
3.822970 3.770647 -0.505731 169 164 159
2.645110 5.166272 1.468882 201 199 196
-0.619784 3.339423 2.438176 250 250 248
3.259892 4.090327 3.833709 210 211 217
1.221089 4.004863 2.883920 239 239 236
-0.055458 1.685731 -2.797043 171 172 179
2.830330 5.207182 1.742169 242 240 234
-0.223062 4.188758 0.782703 210 209 207
1.131455 4.957816 0.537300 224 224 222
0.928482 3.068215 4.666335 210 209 213
3.372045 3.128433 4.678933 245 245 247
1.577292 0.434177 2.258878 125 119 113
1.239931 3.732173 -3.572697 0 0 0
-0.171508 3.655565 2.006260 191 189 185
1.389911 4.673851 1.287672 191 190 189
2.482497 3.503510 5.200891 170 165 152
3.708294 2.471651 4.525580 234 234 231
3.820675 3.760987 -0.682006 170 162 151
1.030748 2.634753 -2.477794 171 132 96
0.332017 3.438837 3.101394 182 178 181
0.715179 1.996574 -4.505027 79 44 27
2.265823 3.415189 5.154151 154 148 135
3.512620 3.048718 5.153359 177 175 173
-0.051347 1.684271 -2.790808 170 172 179
0.980891 1.322593 -2.850649 66 60 62
0.965454 3.176535 -4.212894 165 149 145
2.672977 6.534506 -2.837681 90 52 32
0.915803 2.976577 4.864217 178 172 153
2.191212 3.368442 5.167268 184 182 174
2.357603 5.120930 0.877322 250 248 245
0.258295 0.381660 -0.813452 113 101 92
0.773283 1.166551 -3.028171 28 22 29
-0.354702 4.580830 0.531091 214 214 214
0.345184 1.331182 -3.326563 146 114 101
0.774864 3.641196 -3.809595 152 121 101
1.056173 3.671319 -3.642656 164 127 95
0.545528 4.296942 1.621277 237 234 227
0.786439 1.121662 -2.996480 32 27 35
1.395338 2.251294 -1.623886 165 151 144
1.359683 2.002664 -2.675135 144 137 134
0.153963 1.209268 -3.141917 66 59 56
0.920866 4.702289 0.982944 207 205 200
1.461146 1.578837 -2.790801 125 126 135
0.744342 3.296889 3.853753 190 187 195
2.040963 4.979644 1.194669 242 240 236
1.173193 2.199175 -2.585505 123 124 131
-0.251662 2.627355 4.651331 190 186 165
1.639204 4.971597 1.103425 214 214 214
2.404253 5.787268 -0.433155 114 100 93
1.152577 5.032775 0.639777 248 248 245
1.095581 4.557581 1.284978 246 244 244
0.945650 1.260584 -2.876725 59 54 56
-0.107469 2.744094 4.573859 229 231 237
-0.216442 4.255295 0.570168 236 238 233
-0.038901 1.794943 -2.632928 79 74 79
1.268495 4.593760 1.631435 251 251 248
1.486516 1.661633 -2.803677 106 109 120
1.044785 2.305937 -2.499357 39 32 29
0.268257 2.731989 4.898155 193 191 182
-3.510262 10.107815 3.327472 212 213 217
2.417767 5.010926 1.520780 229 226 219
1.317789 1.754154 -2.685527 131 125 127
1.407714 0.567239 0.168595 204 203 200
1.448318 1.556452 -2.834051 61 62 69
3.857300 3.821977 -0.860553 133 115 98
-0.544904 5.821540 -2.830862 81 53 37
-0.632607 3.642956 1.894372 242 242 237
3.037213 6.966465 -2.240873 39 25 24
2.051799 4.708736 1.952526 246 244 238
1.414883 1.470517 -2.858618 58 57 66
3.386676 5.016614 -0.765273 136 121 105
2.646094 3.699550 4.919643 221 221 221
4.744983 3.060205 -3.666849 209 199 193
1.146637 3.962041 2.169154 252 252 249
-0.393208 5.296455 -2.608638 117 82 67
-0.217768 4.362551 0.323430 231 231 226
3.130397 5.285013 1.344702 255 255 255
1.096101 1.489724 -2.764312 81 78 88
2.643946 3.594479 5.109336 188 182 165
5.416512 1.492555 -4.332766 197 185 178
2.986162 4.376959 2.609258 253 254 254
1.108662 2.402251 -1.660890 85 84 93
-0.261835 4.158937 0.807759 201 199 192
0.296751 4.280253 1.306185 249 249 249
1.287633 2.265658 -2.752632 136 130 141
1.426284 3.159760 4.955525 177 171 151
5.961552 -0.425673 -4.026292 210 202 191
1.241107 3.996823 2.746290 250 250 247
1.369904 1.634792 -3.126449 65 56 55
1.263491 0.594637 -0.013384 243 242 234
3.467339 4.419545 1.249790 209 210 208
1.604671 5.165846 0.686501 236 237 234
3.565403 2.579424 4.443463 219 214 211
1.701874 5.419649 -0.483879 170 161 155
2.042326 4.145814 3.259312 216 220 230
1.447290 1.937606 -2.669375 141 145 155
-0.214120 3.912852 1.445436 237 235 230
3.523004 4.348003 1.401034 255 255 253
-3.625428 10.507356 5.666393 207 208 207
3.446548 2.831856 4.935452 174 169 156
0.935236 4.968823 -0.242409 179 174 171
2.504236 4.135285 3.763484 208 214 224
1.295476 1.320296 -2.906089 65 64 69
-0.215280 3.919652 1.449378 237 235 230
2.339024 4.702712 2.482572 248 250 250
3.714531 2.172530 4.387090 151 143 125
2.587377 5.631116 -0.091050 169 163 164
1.473034 3.659351 3.838761 221 223 232
-0.211755 3.867937 1.521579 238 236 228
1.633281 3.210788 4.958362 179 176 167
0.276632 3.178249 3.822347 200 199 204
1.004364 3.435505 -4.269709 119 86 70
2.374223 5.476712 -0.003538 180 175 174
0.959246 2.720281 -2.977910 58 47 48
-0.208903 3.756608 1.685085 232 227 218
-0.112819 1.559852 -2.814827 62 56 61
1.508550 3.185934 5.067427 128 120 109
-0.217226 3.773952 1.802274 233 228 219
-0.678964 4.354064 -0.416815 126 115 111
3.324990 4.846482 -0.349862 160 155 154
1.335696 2.074977 -2.596158 56 50 46
5.830028 -0.801006 -1.609105 144 137 133
1.458054 2.050956 -2.763535 115 79 58
0.037559 1.887939 -1.808561 130 126 124
-0.216630 3.729584 1.901732 238 236 230
1.469844 4.709977 1.169154 209 210 209
1.815941 5.539433 -0.455176 161 158 160
3.225751 5.185326 -0.588714 127 114 102
1.375652 1.686391 -3.118066 71 60 59
-0.217221 3.691994 1.955474 239 237 231
0.937560 4.695532 0.123363 187 186 189
3.233848 5.104432 -0.384401 134 123 113
3.323686 3.405048 4.673161 243 245 245
0.888706 4.820947 0.027324 181 176 172
0.646283 1.336217 -2.901810 142 145 158
-0.251960 3.658496 2.029179 194 192 188
3.660919 3.956438 1.312380 254 254 253
0.442670 4.960626 -0.251088 110 98 91
1.651080 5.052785 0.139680 156 149 148
0.160466 1.304348 -2.796040 173 173 173
-0.219945 3.671479 2.063024 246 246 242
-3.672249 10.190392 2.480954 232 233 234
3.606899 4.070272 0.258632 245 245 242
2.078640 6.701901 -6.030928 203 189 184
0.042250 4.501136 0.024221 192 190 188
3.580860 3.711004 1.007149 238 236 232
0.142342 2.583310 -1.563140 55 36 36
1.291165 4.901399 0.619120 245 243 239
-1.562625 5.460989 -3.000165 96 65 50
0.017344 3.406737 3.221052 207 210 216
2.336717 4.894147 1.945446 243 243 240
1.695826 4.763262 1.401120 234 232 224
6.956697 -1.518547 -6.854483 90 59 41
0.918607 4.578800 0.721232 244 243 238
-4.062978 4.371526 -3.160087 68 52 50
2.728891 3.764971 4.951906 223 222 225
0.651915 4.033080 2.160135 243 243 243
2.948270 3.784605 5.081345 182 176 162
-0.772330 1.832880 -2.202806 92 75 68
2.726958 5.290124 1.282182 215 213 208
0.676200 3.924112 2.285452 253 253 253
3.243934 3.370005 4.909567 186 180 163
2.936299 3.619474 5.172471 182 180 172
1.525800 4.156409 2.786921 247 247 245
3.108459 3.493656 5.119147 157 151 137
3.306725 3.506490 4.757962 214 211 215
1.239594 4.467259 1.709029 209 207 201
1.325690 5.096202 0.617498 217 218 219
2.712037 3.566675 5.218227 146 140 128
0.769828 2.950002 -5.642287 101 64 47
1.234576 4.492875 1.720729 209 207 201
0.224721 2.371723 -4.112438 113 87 78
3.390660 4.993158 -0.728797 181 175 170
2.146655 3.420502 5.065946 186 180 161
1.113129 4.140249 2.145139 242 242 237
0.240162 2.346100 -1.263286 115 114 118
1.701355 2.636758 -4.050811 167 149 141
-0.141368 4.259252 0.330498 203 204 202
0.726842 4.032829 2.261602 212 212 212
3.038378 3.562739 5.255332 201 198 189
4.213375 -2.897316 1.476682 178 171 166
1.554375 4.312859 2.496630 251 251 251
1.350446 2.188303 -2.398926 132 130 136
0.813479 1.033433 -2.993186 14 7 4
0.119074 4.244820 0.937055 205 205 205
0.949903 1.536908 -2.752177 132 128 136
0.905342 1.149428 -3.017253 16 8 10
3.658275 4.111108 0.812432 220 220 220
0.737916 1.185665 -2.918457 112 111 118
1.899919 3.307341 5.000522 184 178 163
0.590438 2.419543 -3.932865 141 106 85
0.061548 3.653504 2.448845 217 215 216
1.139695 1.717704 -2.700379 121 117 126
1.462248 1.557213 -2.917661 83 67 61
3.685749 4.140917 0.824904 220 220 220
3.154390 5.683584 -0.631319 119 103 97
3.201235 3.293825 5.050616 171 164 148
6.422269 -0.801780 -4.794378 169 160 154
1.313683 1.657129 -3.282186 150 124 112
1.446217 2.082920 -2.714740 112 79 57
0.859698 5.102332 -0.162861 117 108 108
3.440072 2.888879 4.711690 187 181 168
0.931456 1.770878 -2.678251 63 66 72
0.852286 1.996976 -2.592743 113 106 105
-4.119352 11.582709 2.396022 232 233 237
3.534105 2.674726 4.615185 183 177 160
3.055959 3.819381 4.888693 250 249 252
2.353593 5.597358 -0.475511 122 104 94
1.487394 1.858793 -2.712329 92 92 100
-0.093306 1.881630 -2.452358 59 52 51
0.369696 5.882796 -2.795307 102 64 42
1.314723 3.064123 4.961398 143 135 119
2.019606 2.490102 -2.715417 107 82 70
0.883869 1.397249 -2.830232 81 79 89
3.953978 4.447773 -3.020635 36 14 7
2.823350 5.008102 1.473082 241 241 243
-0.287852 2.653881 4.560048 215 214 215
-0.249552 4.571981 -0.332106 147 133 126
-0.096775 1.594962 -2.784358 88 84 89
3.114646 6.430570 -2.107493 127 109 94
2.747221 5.088220 1.533711 202 200 203
3.616101 2.422934 4.490989 170 164 148
0.800551 5.115524 -0.612569 133 121 114
0.290262 4.540235 0.387833 236 234 229
0.661466 4.293831 2.296129 236 237 237
1.770342 5.139484 0.764318 240 238 234
0.295360 1.604423 -2.893088 0 0 0
1.591631 5.367101 -0.558109 166 155 145
3.638869 2.660157 4.596344 239 238 241
2.760084 5.333872 0.994860 244 244 239
0.333167 2.178404 -2.181184 69 66 70
0.843024 5.020010 -0.564436 129 115 108
-0.690667 3.043559 -3.871132 157 138 132
0.832845 3.085244 -2.730948 119 76 50
0.306346 2.692243 4.798957 132 124 108
2.529320 5.261521 0.996157 254 254 249
0.333167 2.178404 -2.181184 69 66 70
3.345429 4.785526 -0.332619 183 176 169
0.425974 2.582073 -5.321186 66 33 11
1.050247 2.154331 -2.340148 76 75 82
0.888551 4.867606 -0.085469 173 166 159
2.486156 4.994327 1.900544 216 216 216
0.421959 4.928391 0.026038 146 137 131
-0.147852 1.549337 -2.859119 44 38 39
0.678628 4.414252 1.332979 244 242 240
1.469784 2.104794 -2.409264 150 151 159
0.295890 4.531197 0.387288 255 255 252
-0.194108 4.226673 0.586642 211 211 211
2.418967 5.006898 1.574494 212 210 207
0.313771 2.113633 -2.563114 120 119 124
1.097002 4.637717 0.969230 249 249 248
0.807784 3.078993 -4.268984 143 117 116
2.492442 4.696338 2.212793 243 243 240
2.980956 5.481781 0.795751 254 254 254
2.528497 5.108686 1.646932 238 234 229
2.514375 5.215609 1.283207 246 244 238
2.246058 4.642958 2.423073 249 250 250
2.973030 5.447759 0.801802 254 254 254
-0.194813 1.981440 -2.171780 43 36 38
-3.480072 24.421280 9.183188 255 255 255
0.436680 2.339246 -1.395166 81 78 82
2.603012 5.001401 1.464200 241 241 235
0.142224 4.332272 0.884254 253 253 253
3.144145 3.882448 5.067894 255 254 255
0.963246 3.786981 3.155754 236 234 231
4.945731 8.002577 2.451830 239 237 235
0.221317 2.825473 4.620927 232 233 236
0.887082 1.952970 -2.611804 108 104 109
0.421366 4.474026 0.933381 252 252 249
0.325144 1.180323 -3.248699 150 113 86
-0.200390 2.622135 4.532997 173 168 165
1.390208 1.473888 -2.985361 56 50 55
-0.474629 3.985783 1.217008 253 253 251
0.819201 1.507065 -2.783467 67 67 73
-0.174383 1.877993 -2.244664 60 54 59
2.982666 5.299388 1.308589 255 255 255
1.288842 6.315962 -2.274165 163 150 143
-0.212460 2.638623 4.552898 173 168 165
-0.247130 3.503633 2.446726 209 209 206
0.817242 1.503844 -2.783611 67 67 73
1.370217 5.300593 -0.593560 118 104 97
2.969991 5.143338 1.539194 253 253 254
5.733999 -1.458959 -6.020167 23 10 16
0.436308 4.585510 0.381620 203 201 199
0.501435 3.578754 3.098326 193 190 196
-0.023768 2.915194 4.227153 240 242 246
1.584018 5.166623 0.623772 233 234 233
2.966387 5.126965 1.544257 253 253 254
3.233548 2.125724 -3.708267 148 107 83
0.348480 4.524376 0.390385 231 230 226
-1.126793 4.704831 -3.215322 157 113 77
2.474371 4.171666 3.841568 200 203 211
1.092759 1.516461 -3.433071 132 93 65
2.458574 4.999895 1.862352 234 234 234
1.318947 3.168904 4.807240 156 148 137
2.211207 5.541761 -0.267299 137 128 124
2.806286 5.320145 0.892730 230 230 225
1.309683 2.267722 -2.209791 166 167 174
0.575149 2.404336 -4.308653 115 88 79
1.057431 3.000549 5.057120 143 141 137
0.515018 2.778556 4.884983 132 124 111
0.331039 5.659507 2.971477 205 205 199
2.431787 4.915858 1.783733 206 205 210
0.859105 1.307913 -2.855894 104 99 101
3.312807 3.389725 4.930780 191 189 185
0.712160 3.955841 2.442191 201 201 198
1.145489 1.227637 -2.935267 122 126 134
4.144567 4.549178 -3.347918 96 63 51
0.070956 2.659857 -4.078614 200 191 191
-4.793948 13.619040 5.420701 248 249 248
4.483265 3.603332 -3.678052 97 63 52
2.549079 3.988128 4.078084 185 183 184
1.489091 7.037410 0.183212 166 157 149
0.850932 1.112998 -3.007747 80 77 81
1.553041 4.452431 1.764235 242 242 238
0.767355 1.437173 -2.807700 113 106 108
2.583103 3.629268 4.963529 191 186 181
2.736221 3.719402 4.922902 219 218 219
1.489176 1.892314 -2.605521 92 96 108
-0.432988 4.322533 0.276887 200 200 195
0.222457 5.874347 -2.496234 26 7 4
2.789552 4.622858 2.959930 251 251 251
0.783573 1.497989 -2.782502 105 99 100
2.806102 3.674484 4.994621 199 194 181
1.573456 3.975233 3.006705 207 213 228
1.312668 3.203618 4.763566 160 155 152
1.076156 1.755492 -2.675172 124 128 141
1.380680 4.634218 1.306355 233 231 227
1.528158 3.577601 4.038443 183 186 195
1.311919 3.206790 4.765411 160 155 152
0.774340 1.642328 -2.729002 117 121 131
-0.657097 3.084467 2.866660 240 238 236
3.204626 5.432321 0.757621 249 250 250
0.165605 3.100005 4.104173 227 228 233
1.295232 1.581399 -2.740998 114 106 105
-0.196147 2.316240 -2.093379 98 77 72
3.091670 2.778600 -3.961910 140 108 88
1.453314 1.882684 -2.716039 135 137 150
2.729240 3.745216 4.930812 224 223 224
3.631392 3.906899 1.032984 237 237 235
1.450058 1.941146 -3.734792 110 68 49
1.124691 1.697846 -2.699342 107 100 99
1.456912 1.862117 -2.702302 101 103 117
1.583940 3.265466 4.830879 146 140 126
3.397870 5.178052 -0.551765 85 81 79
1.321940 2.369667 -2.553342 122 79 57
4.044172 4.629942 -3.259668 91 58 44
1.157021 1.726611 -2.699795 78 74 82
-0.909097 5.485359 -5.025824 27 19 20
-0.646851 4.569841 -0.884161 171 160 145
-0.152595 1.645376 -2.721784 55 46 49
1.356943 2.710379 -4.886566 145 125 115
3.552994 4.644877 -0.825522 109 102 100
0.885082 4.488974 1.274567 240 240 240
-0.673404 4.523570 -0.873422 123 109 98
3.119091 6.935449 -2.065533 52 40 38
0.906018 1.411818 -2.792880 96 91 91
2.842722 5.262963 2.261595 228 230 230
0.879693 5.083944 -0.669296 175 164 154
3.805583 2.032513 4.267596 210 210 205
1.170716 1.820324 -2.673830 80 73 72
1.652688 6.844786 3.464077 196 196 197
-0.940192 4.270377 -0.527201 132 121 111
3.199771 3.654854 4.967453 244 245 246
1.174898 1.796823 -2.667276 80 73 72
-0.105380 1.952221 -1.806719 128 123 121
1.064057 1.211131 -2.952993 31 25 25
0.148952 1.386496 -3.280936 146 121 113
-0.576228 2.182397 -2.147192 154 141 131
-0.942235 4.250552 -0.471712 123 109 98
3.581258 5.372090 -1.597524 193 185 169
-0.508196 5.711187 -2.623969 90 64 63
1.350417 1.380515 -2.894880 39 30 28
0.655778 2.693026 -4.513237 160 146 143
0.858302 4.954105 -0.148851 177 175 176
0.847550 4.874910 -0.222628 144 135 129
3.212631 3.582656 5.000954 191 189 185
3.581258 5.372090 -1.597524 193 185 169
0.902037 1.473236 -2.788768 111 104 106
2.730082 5.469752 0.805681 201 200 202
0.119717 2.345063 -0.362916 190 185 182
3.085709 3.827042 5.134320 193 193 190
1.591897 0.005490 -1.031468 115 100 89
1.096370 4.577090 1.005911 250 250 245
3.333174 3.103280 5.025563 215 211 208
1.421086 -0.066449 -1.046265 113 98 85
1.260328 2.284901 -2.180670 99 90 88
0.775146 4.781554 0.491221 235 234 230
0.965242 4.580100 1.034295 198 196 190
2.847859 3.592272 5.314158 189 187 182
3.150560 5.306046 -0.587249 160 149 137
1.218420 2.310125 -2.046003 101 94 92
5.576384 1.359323 -4.724247 77 42 17
1.040986 3.213938 -3.667053 157 118 98
1.024623 2.374552 -1.597381 101 94 91
0.960982 3.128598 -4.044872 158 138 129
2.174029 4.907599 1.377039 186 185 188
2.837827 5.272160 1.315581 251 249 247
0.039218 1.268822 -2.966118 56 50 55
1.606835 6.751338 0.547614 192 189 190
0.358645 1.088721 -3.005584 60 60 65
1.015261 2.399453 -1.589592 97 90 87
0.787112 1.169870 -2.925261 98 103 113
-0.084799 2.064810 -1.421389 150 136 124
1.679807 1.957372 -3.604732 134 94 67
0.055112 4.042220 1.272584 231 232 235
1.256775 4.752970 1.309273 187 185 182
1.073422 1.223566 -2.941782 76 72 77
2.181973 5.246763 0.779489 244 243 238
-0.064804 1.556947 -2.819914 144 140 141
3.154424 5.333717 -0.588784 165 152 140
0.968653 1.137960 -3.021103 22 14 18
1.436460 2.138669 -2.657240 113 96 96
1.079087 5.039710 -0.074635 145 133 128
-0.300186 4.086877 0.847638 254 254 251
2.462634 4.964071 1.931163 240 240 238
3.035219 3.759355 5.130043 225 221 209
2.118835 6.527468 -2.205456 50 31 29
2.024170 4.980224 0.992461 249 249 244
0.880087 1.958581 -2.612509 91 88 88
2.553025 5.591230 0.023409 178 170 165
-0.295342 4.103101 0.851794 254 254 251
0.572353 4.121525 1.678431 242 243 240
1.813324 3.349309 4.863068 144 138 126
-0.679976 4.312695 0.889599 228 226 222
1.060668 4.816507 0.534980 198 197 191
1.094169 4.347746 1.611209 217 219 217
2.327320 4.619522 2.404911 251 252 252
3.316837 3.153695 4.778883 176 170 158
2.600930 5.085730 1.257438 248 247 243
2.935306 5.485675 0.819983 255 255 254
0.383106 1.564821 -2.749948 99 98 103
1.520903 4.264988 2.277230 253 252 255
3.318574 3.157926 4.785169 176 170 158
3.266930 5.403850 -0.464756 140 133 129
1.250593 3.489092 0.913808 244 243 241
0.944901 2.143858 -2.516430 100 101 107
0.289569 5.093967 1.175500 201 199 193
0.388694 1.572461 -2.751605 99 98 103
2.377868 4.714689 2.532305 246 248 248
1.196513 3.171539 4.800705 177 171 155
-0.026639 2.910178 -0.063503 150 147 144
0.696121 2.404957 0.918642 237 236 230
0.711103 1.088532 -3.159303 136 101 84
1.113047 4.648008 1.056863 201 200 193
0.636617 -1.073489 -2.624617 79 46 26
1.231745 2.437096 -2.200838 176 175 182
-0.581259 3.987924 1.096072 241 241 236
2.403366 4.378607 3.200799 248 247 250
-0.119208 2.670611 4.580822 186 180 168
3.919031 2.852898 1.566077 162 157 154
-0.079959 3.810292 2.151121 251 250 248
0.895105 1.311497 -2.845043 62 65 78
0.781656 4.497110 1.349620 234 232 228
-0.249322 2.661002 4.579059 217 214 209
3.421441 3.179714 4.704473 209 208 211
1.274829 3.957331 2.765103 196 194 192
1.012934 1.842772 -2.645162 87 90 102
-0.124640 3.780171 1.476553 238 237 230
1.317468 5.288835 -0.477330 123 111 108
1.445390 1.908081 -2.692888 81 73 82
3.583968 2.445413 4.452399 197 192 179
3.635852 2.417973 4.548520 225 223 217
2.780194 4.201544 3.714496 216 220 229
1.475414 1.798588 -2.769185 134 136 147
3.229001 3.396462 4.879450 183 178 168
3.788640 4.282507 0.240540 249 249 249
-0.373042 1.974853 -2.260041 0 0 0
1.601790 2.065475 -4.385449 158 139 131
3.647061 2.371072 4.660793 176 174 168
2.801767 3.706627 5.000963 203 196 187
0.850842 1.135361 -2.994152 22 15 16
3.099160 3.524428 5.139525 205 203 197
2.305430 3.544589 4.952414 191 185 173
1.300303 2.250846 -1.733605 131 130 137
0.300077 2.854356 4.575705 187 182 179
2.007639 5.652365 -0.504095 117 104 98
0.083805 1.220044 -2.969752 96 87 85
3.119933 3.509070 5.184487 173 172 165
1.980620 3.467185 4.914961 178 171 162
3.280880 4.757627 -0.246988 146 140 141
1.142248 1.216313 -2.938034 73 66 68
1.629057 3.344007 4.868595 177 172 161
0.204535 2.535730 -4.216704 157 133 122
3.806881 3.861748 1.250744 254 254 254
0.801211 4.873271 0.150534 193 192 195
0.524006 1.341861 -2.829232 85 80 79
0.522412 2.932887 4.638219 211 210 214
0.184477 1.203682 -3.016215 69 62 59
-0.340397 5.740370 -2.602247 40 21 17
1.346949 2.011630 -2.626014 122 115 114
0.323596 2.748966 4.964570 143 142 134
3.030843 5.161621 0.870779 197 196 199
-0.096075 1.554330 -2.815950 45 36 34
2.313990 3.432790 5.086979 139 131 118
0.276933 1.107861 -3.057950 127 126 131
-1.532001 5.261055 -2.725529 57 37 23
-0.200973 4.411788 0.375239 206 205 208
-0.071775 1.597628 -2.801324 52 44 42
0.791468 2.866258 -3.302281 82 64 56
1.492384 2.098899 -4.444582 74 45 32
1.441752 1.957509 -2.654826 125 126 137
1.015779 2.406208 -1.532586 165 160 157
0.820700 0.992133 -2.157597 171 159 154
4.700990 3.061078 -3.641301 204 193 180
0.903303 1.488892 -2.788571 105 100 100
-0.042879 2.157654 -1.416042 99 94 92
2.503683 5.137585 1.037069 243 245 245
0.788986 1.576399 -2.752170 112 105 104
3.608642 5.476105 -1.710078 160 149 134
1.237294 1.648342 -3.161809 44 28 25
-1.526613 2.549767 -2.695170 95 94 97
-0.058355 2.166087 -1.387173 154 141 129
1.224526 1.691823 -2.711181 108 101 98
3.525815 2.943193 4.691102 201 200 203
0.190118 1.354923 -3.127702 57 52 51
3.081373 4.741930 1.531093 229 229 232
1.089173 1.798856 -2.663535 115 108 107
0.009226 2.317333 -2.946209 30 18 16
-0.021029 2.000829 -1.452697 93 86 86
3.490238 4.511624 -0.395363 182 175 168
0.172350 0.396237 0.018071 218 219 218
2.094717 4.951082 1.762660 251 251 252
1.199181 1.803077 -2.664274 79 71 69
3.809342 1.735824 4.525587 187 186 185
0.894117 2.488672 -1.394603 26 18 15
-0.178016 3.954402 1.345469 207 205 210
1.010746 1.843664 -2.647650 91 84 81
0.806867 2.607827 -1.382174 138 133 132
0.906411 2.145711 -2.564224 108 109 116
2.922817 5.527333 0.791946 215 213 209
0.742191 1.709471 4.576108 47 46 44
2.502090 4.925344 1.866415 215 215 215
2.079638 6.547271 -2.242394 34 13 14
1.950279 1.658759 -2.091406 0 0 0
3.618617 3.999617 0.737210 225 223 217
0.879773 1.327242 4.375414 191 190 191
2.563570 5.626984 0.066245 180 175 172
-0.437077 4.131094 0.790888 209 208 204
1.058358 1.183548 -2.972410 100 96 99
0.597325 4.152193 1.577173 243 244 242
3.872772 3.995037 -1.122492 178 166 149
0.420057 1.549554 -3.550872 123 90 72
3.761686 4.054121 0.354128 213 207 201
0.148810 1.149485 -2.929434 147 110 80
0.984735 4.702582 1.069860 198 196 190
1.053365 1.177295 -2.968999 100 96 99
1.316373 4.295869 2.003836 241 241 241
2.316493 5.452317 0.051300 183 178 173
0.063689 4.786722 0.406843 203 201 197
-1.458848 5.290952 -2.935213 108 73 49
1.615113 4.758111 1.110769 190 190 185
0.887630 1.236815 -2.834402 94 93 100
2.241577 4.699632 2.322064 242 242 242
2.317708 5.453505 0.047068 183 178 173
2.800603 5.381021 0.729907 243 242 235
1.225637 2.439791 -2.364714 171 168 174
1.483550 4.596802 1.447686 209 204 199
4.375565 2.984352 -3.501149 192 185 176
2.094390 4.480057 2.536701 207 206 209
0.019049 4.204114 1.106663 190 188 186
2.692375 5.474933 0.973529 248 248 242
0.978670 1.871956 -2.634760 133 137 145
1.538825 4.343813 1.848388 208 206 202
2.402515 5.609660 -0.424236 117 108 104
2.094390 4.480057 2.536701 207 206 209
0.981215 4.587420 1.249199 189 187 183
2.069105 5.129697 0.975404 249 249 245
-0.052949 4.733458 -0.802648 157 148 144
1.010936 3.844044 2.923597 214 213 214
2.467259 4.586954 2.687949 248 249 250
-0.439642 4.011446 1.079378 202 202 197
2.388458 5.229103 1.135792 231 229 223
1.183647 2.173115 -2.539939 80 80 85
3.038351 3.807038 5.104386 197 192 183
3.223078 5.156629 -0.084578 194 194 194
2.466602 4.543423 2.856821 249 249 251
2.969781 5.264485 1.506789 169 167 163
1.439329 5.291518 -0.520655 127 114 109
3.852401 3.393931 0.644930 168 163 154
1.107804 1.893618 -2.638940 118 121 134
2.561939 3.630500 4.976970 204 198 187
-0.456645 4.393299 0.341357 249 249 249
2.390173 4.542828 2.936449 249 250 250
2.819886 5.194536 1.483525 199 197 193
3.669968 4.228745 0.839895 243 243 240
1.952593 4.994061 1.191345 217 215 211
1.276214 2.246150 -2.208659 126 125 132
0.334314 2.908422 4.483446 176 173 177
2.437795 4.446937 3.113372 195 194 197
1.266475 4.699645 1.335427 231 227 224
2.759172 5.190282 1.291729 238 238 231
1.595495 3.783618 -3.486995 177 152 137
0.966279 3.097585 4.779587 179 172 163
5.668101 6.593492 0.657200 209 209 209
1.030434 3.778265 3.113582 203 209 224
3.003715 5.194977 1.486122 167 165 163
3.567236 2.345524 4.476049 197 192 186
2.319505 4.948736 1.457857 197 195 191
1.469502 3.772600 -3.534780 164 138 116
1.438672 -0.149769 1.651642 147 141 127
-0.669887 3.792452 0.808290 210 209 211
1.510130 1.258879 -2.776992 16 10 15
-0.459272 3.901648 1.253495 255 255 251
3.108834 3.263358 4.823739 194 192 185
0.333097 4.261073 1.228623 245 245 240
1.400612 1.472613 -2.969124 55 49 51
-0.316251 3.831756 -5.414376 113 86 73
1.590375 3.806329 3.352107 208 208 211
1.745668 2.985873 -3.231185 134 90 68
-0.407400 1.974493 -2.009591 150 133 113
0.409653 2.876342 4.668107 228 230 230
1.099050 1.700312 -2.707192 99 96 104
3.072850 5.573745 -0.497268 159 146 134
3.641354 5.467952 -2.806634 83 62 61
1.414008 1.455971 -3.007666 103 72 56
0.373085 1.270093 -3.337277 162 142 132
0.940614 2.960021 4.941655 204 202 194
0.863829 4.467571 0.675547 200 197 191
0.623808 2.429878 -2.539228 87 86 91
0.373707 1.237911 -3.326938 162 142 132
-0.437501 4.586889 -0.284849 134 129 124
1.025542 2.425355 -1.578843 126 120 129
3.595632 4.139540 -0.535944 170 165 158
2.269240 3.390460 5.123741 150 144 130
1.376796 2.015979 -2.595176 129 133 141
0.028290 1.942780 -3.585544 139 105 88
3.592792 4.135139 -0.536197 170 165 158
0.674282 3.827656 2.979717 240 239 235
5.074407 3.262843 -3.772276 0 0 0
-2.397069 -2.092984 -0.857922 251 251 251
-0.156620 4.470444 -0.014086 185 180 177
-0.710614 4.394434 -0.396846 178 178 178
3.717163 4.041755 -0.781431 149 137 125
0.603361 4.382228 1.394767 212 214 214
-0.238599 4.673495 -0.639383 145 134 132
-0.640165 4.311608 0.554227 230 230 225
0.880882 2.264384 -1.625449 121 114 111
1.685187 5.431011 -0.477288 111 97 87
1.376538 1.402897 -2.848213 109 113 123
0.099255 1.980796 -3.370633 55 43 40
1.428529 3.193093 5.003841 177 175 169
0.045903 4.612329 0.391476 227 228 231
0.257481 4.450964 0.589186 229 229 227
5.987334 -0.301226 -4.031043 174 167 155
2.164353 5.475337 -0.036187 129 118 111
-0.261276 1.666690 -2.569597 107 65 41
1.428529 3.193093 5.003841 177 175 169
-0.070268 4.450809 0.358666 236 235 238
3.816319 5.005956 1.099726 214 212 208
1.660566 5.359878 -0.498143 119 107 102
2.162605 5.493483 -0.032125 129 118 111
2.106591 5.161406 0.953501 240 242 242
1.619373 4.730060 1.143573 188 186 182
0.102799 4.827856 -0.043620 144 132 125
0.710749 1.384462 -2.825640 122 126 136
2.776773 4.939388 1.342075 208 206 204
0.746869 4.747860 0.508514 251 253 250
2.558545 5.043988 1.460555 242 242 242
2.429800 5.138430 1.269323 245 243 239
0.267785 1.447269 -3.895633 75 47 30
1.326232 1.345479 -2.892962 54 51 58
-0.370221 3.773828 1.893315 242 241 237
0.748364 4.751573 0.508686 251 253 250
2.101735 5.006318 1.443410 231 231 231
1.742051 4.391618 2.342566 235 233 227
-0.528582 4.192509 -3.129992 197 177 171
0.036207 1.876211 -2.605888 48 43 40
0.744003 1.075099 -3.019638 87 80 82
-0.337673 3.452981 2.473997 253 253 252
3.050724 -0.117927 -0.269555 192 194 194
1.791805 3.366027 4.861018 189 183 175
3.136588 3.849360 5.125288 205 205 202
-0.244122 1.805230 -2.326605 76 44 27
-0.534308 4.059061 1.057239 193 192 197
2.688360 3.590725 5.275433 169 163 153
5.870953 0.325523 -4.971686 102 69 58
-1.063381 4.099694 -0.229554 161 151 141
1.230408 2.356896 -1.929678 171 175 182
0.280935 1.444397 -3.832476 151 130 121
0.143882 4.243411 0.909681 252 253 253
0.521868 4.326504 1.201220 195 195 195
2.134709 3.359929 5.117805 151 144 135
5.623554 1.403684 -2.266300 195 188 183
2.637064 5.380503 0.905170 254 254 254
0.662019 0.958500 -2.940327 130 127 131
0.565385 2.756105 4.889289 182 181 168
2.146927 6.663234 -2.157552 146 132 125
1.237157 0.764514 -0.007739 201 199 197
-5.827507 1.677495 -4.288960 78 67 67
1.089055 3.386411 -4.294282 171 153 143
2.475631 5.637593 -0.225530 134 128 126
0.371783 3.318130 3.359861 225 226 231
0.592723 2.776862 4.903651 184 180 168
1.833052 4.969909 1.129375 203 201 195
0.479813 2.425648 -1.238488 187 185 177
3.668787 2.267308 4.533488 169 165 148
2.059535 4.345305 2.960247 248 248 248
0.854412 2.860028 4.924385 201 197 185
0.144429 2.658790 -3.280828 143 109 80
2.038236 5.031467 1.059911 248 247 242
0.025456 1.813188 -1.950737 37 24 16
3.573135 2.514781 4.667250 181 175 161
1.960613 4.384124 2.575221 240 242 242
-0.183508 2.614744 4.573726 195 190 178
3.282128 3.524561 4.899425 244 245 248
2.984607 5.528766 0.793867 254 254 253
-0.153690 1.797129 -2.366242 32 18 14
3.576070 2.518874 4.671340 181 175 161
1.069768 1.267298 -2.867095 81 78 86
1.382596 3.045494 4.988744 195 191 179
0.007859 4.481299 0.381555 237 232 223
1.262818 2.242725 3.612815 213 214 219
-0.219920 2.129095 -2.480549 64 51 45
0.353138 4.119423 1.666106 248 250 250
1.382335 3.048325 4.991825 195 191 179
-0.131030 5.823694 -2.548028 153 140 133
-0.204520 3.531276 2.634228 195 193 191
0.557989 4.119979 1.650479 244 244 241
1.570485 3.136372 5.018770 137 131 118
3.178413 3.459596 5.176751 168 166 162
1.057384 2.098041 -2.572561 105 98 95
0.942052 1.504302 -2.801163 120 120 136
1.171670 4.062542 2.549235 238 240 240
0.838248 3.115263 4.796595 235 237 237
1.667137 3.121111 4.999943 201 197 183
3.367650 3.018884 5.014552 166 161 158
0.887007 2.812362 4.763882 168 164 145
1.178987 4.214413 2.390392 244 244 241
1.086975 3.184669 4.816440 236 238 235
0.286311 2.827031 4.653041 187 180 173
3.556448 4.964485 -0.810935 136 121 114
1.247509 3.235210 4.803958 211 209 210
-2.274860 1.598605 -2.330870 210 206 202
1.178987 4.214413 2.390392 244 244 241
2.397306 4.922034 1.752949 215 216 219
0.238767 2.828979 4.638033 218 216 211
5.057904 1.384729 -4.621602 122 80 58
1.119425 2.489094 -1.844896 207 200 197
-0.348916 3.649112 2.095362 252 252 251
0.937565 4.211879 1.537554 232 234 234
2.102413 4.810438 1.668160 204 204 206
1.876913 3.236740 5.069483 194 190 178
2.574329 4.204636 3.581556 197 195 194
0.983763 1.159132 -2.977502 116 116 125
0.069455 2.009258 -4.002371 150 125 114
3.518487 4.510984 0.989422 253 253 250
2.102413 4.810438 1.668160 204 204 206
2.119725 3.331641 5.110880 191 185 173
2.618637 5.491041 -0.386680 122 110 103
0.771662 3.664243 3.176765 240 238 234
2.888006 5.075047 1.658559 247 249 249
0.619765 2.900393 4.652615 183 178 165
2.646845 5.258321 1.276342 249 249 246
1.393173 2.227906 -2.253946 107 67 44
0.861880 1.376909 -3.142957 15 8 10
1.300658 1.997271 -2.645893 85 88 101
0.825843 3.174609 4.718072 174 169 171
2.815764 5.295687 1.306769 253 253 253
1.789955 4.018256 3.332345 196 201 215
3.642403 5.657799 -2.851717 73 45 29
0.299963 1.082347 -2.992386 54 50 56
0.719060 4.216976 1.067978 199 194 193
3.573447 4.140990 0.824231 253 253 250
2.406438 4.389151 3.283376 243 243 243
1.268150 2.050744 -2.585996 110 103 101
-0.895060 4.221436 -3.357067 139 114 101
0.937640 2.394950 -1.609606 103 102 107
2.776234 5.102539 0.926935 242 242 239
-0.681654 4.075545 0.232488 166 164 163
2.113188 4.383018 3.203692 231 230 233
-0.086214 1.502177 -2.847854 67 55 54
3.695505 2.116917 4.663373 170 168 164
0.058247 2.038917 3.279590 214 215 226
1.441260 1.951870 -2.749652 118 119 125
3.586079 4.118361 0.450924 235 233 227
-0.461655 4.561588 -0.394007 129 122 115
1.280111 1.322072 -2.907634 90 83 82
3.504868 3.324619 2.923026 216 219 224
0.637234 2.272305 -5.024691 55 27 8
-3.798983 3.700694 -2.993063 87 58 39
0.507825 1.679239 -3.694470 163 147 137
1.488203 4.045431 2.774017 194 195 202
0.325368 1.285833 -3.265717 142 120 112
2.391983 2.672631 -2.744448 112 83 70
0.853938 1.322512 -2.852464 91 85 88
-0.511003 3.428800 2.513302 224 224 228
0.322739 1.278641 -3.258221 142 120 112
0.710535 2.449351 -2.529642 116 111 113
-5.879298 2.271613 -3.936916 72 57 55
-0.144434 4.432001 0.777643 252 252 252
-0.155532 1.685026 -2.577971 120 118 119
1.246710 4.021593 2.622230 249 249 249
1.341095 2.873230 -4.979394 172 152 141
0.068901 2.064055 -2.248131 113 108 107
0.172357 1.345000 -3.537451 62 38 22
-5.463859 3.875192 -3.308004 147 132 118
-0.339799 2.986521 4.280934 220 221 228
-0.098075 3.415179 2.367056 225 228 231
0.261261 3.760709 2.409506 246 246 246
0.532297 2.758298 4.896212 198 195 184
0.191680 1.123005 -3.015501 49 41 46
-0.628087 4.457829 -0.027442 182 177 173
0.600168 2.604332 -5.326023 56 25 7
0.957503 3.161969 -3.778877 10 1 4
0.347238 3.752416 2.383734 209 208 211
0.533118 2.743865 4.880838 198 195 184
0.393828 5.121537 -0.717501 111 95 83
-0.119386 1.670589 -2.666593 114 113 121
0.708674 1.575709 -1.861496 47 42 39
1.397780 4.596239 1.336096 146 145 141
0.978824 2.512111 -1.635664 177 180 187
-0.426830 3.768877 1.988172 245 245 240
1.163441 3.057933 5.118373 169 167 163
3.593689 2.436939 4.478801 165 160 147
-2.783067 0.529237 -0.778658 144 113 99
0.416049 2.098208 1.276617 245 245 245
1.589460 4.312928 2.291003 253 253 253
-0.687144 2.540800 4.477954 213 214 223
2.994190 3.095021 -2.875553 132 124 121
0.779134 1.593475 -2.735919 82 75 74
0.828326 2.798218 -3.061252 85 57 46
3.493529 2.734651 4.548590 169 165 160
-0.372495 4.562640 -0.464490 96 87 81
2.535163 4.819366 2.224420 239 238 235
0.170780 2.812448 4.661727 185 180 169
0.717979 2.451187 -2.478004 46 41 41
0.860366 2.884395 4.842738 173 168 150
1.364955 2.059887 -2.583153 128 132 140
0.337092 1.718714 -3.544985 85 67 59
-0.020726 4.180032 1.133926 220 219 223
0.204084 2.826149 4.663553 183 177 166
3.320495 3.047979 5.002933 170 167 162
-0.667414 1.910541 -2.862443 156 122 93
1.397209 1.614467 -3.009022 63 52 52
3.996897 3.968292 -1.031689 138 126 119
1.865571 4.973706 1.428680 235 237 237
0.342838 2.906180 4.715945 183 178 168
3.411788 2.875502 4.948108 186 186 181
0.907520 2.626687 -1.734378 142 108 89
0.557769 4.737751 0.466802 226 223 218
-0.194155 4.198964 0.835577 207 206 209
0.410527 2.888597 4.661478 219 214 208
3.418571 3.146957 4.800433 232 231 234
0.885896 2.814494 4.853438 133 132 119
3.115340 0.860336 -0.128477 151 111 86
3.620353 3.708740 1.108292 245 241 237
0.587927 3.003905 4.772125 141 141 140
0.855419 1.137701 -3.059869 71 68 76
1.292205 2.380417 -1.932794 41 20 15
-0.099463 2.166732 -1.467245 99 96 98
0.578400 4.666959 0.842701 251 252 252
3.509841 2.914548 4.707083 191 187 175
3.549619 4.450406 0.365882 208 206 207
1.853441 3.218528 5.046083 138 132 120
1.383802 1.985375 -2.649249 88 93 105
-1.180905 3.137415 -2.408836 64 43 32
1.484060 4.976168 0.900750 209 210 208
2.576338 5.286125 0.897909 207 208 208
2.554908 3.509333 5.225537 177 173 161
5.825089 0.387440 -4.965486 42 19 17
2.316090 3.427310 5.122489 137 131 114
-5.976563 2.453007 -4.069224 58 33 26
-0.916897 4.366843 -2.482035 154 136 119
0.774575 2.438689 -1.327521 168 167 178
-0.444103 2.470511 4.505236 161 153 144
0.284103 4.398727 0.965851 253 253 253
1.758449 3.415763 4.801772 209 209 206
3.119498 5.345932 -0.295588 141 134 131
3.227142 3.390872 4.871188 178 172 163
0.205578 2.251093 -3.152548 20 8 5
0.364731 3.429905 3.495123 205 208 218
0.840339 1.589064 -2.748818 137 134 140
2.281791 3.544518 4.946111 162 156 148
3.626634 2.388289 4.708495 213 213 206
0.794346 3.570390 3.027261 245 244 239
0.084268 2.632725 4.746223 141 137 118
4.139522 4.290763 -3.454570 112 72 50
1.140963 1.715826 -2.701210 122 119 127
2.266473 3.592935 4.918461 172 167 164
2.600302 5.709056 -0.315276 127 116 112
-4.388516 14.889937 9.483575 237 237 237
0.040322 2.074831 -2.624685 106 106 112
0.594611 2.833811 4.832236 144 138 121
2.268370 3.585308 4.928939 172 167 164
-0.105843 1.511199 -2.889624 27 19 24
1.732848 4.394762 2.398565 247 246 242
3.135706 3.595747 4.951328 178 171 162
3.088285 5.921703 -0.339433 111 97 92
0.990628 4.091746 2.229663 242 242 237
1.490058 1.692284 -2.793932 117 120 129
0.024797 3.935909 5.837150 191 185 170
3.555572 3.106384 4.214504 211 210 213
1.094473 2.727252 -3.059389 123 77 50
-0.513126 3.560252 2.010166 249 249 245
1.768234 4.895000 1.598821 226 224 222
1.013962 1.663414 -2.716130 125 129 145
1.635267 1.978711 -4.320860 161 143 135
0.741777 1.862276 0.259886 237 237 237
0.746007 4.088933 2.135671 229 229 222
1.008523 1.147588 -2.973639 60 56 55
1.366984 3.105781 4.892376 183 177 158
-0.020157 2.211152 -1.386532 108 107 110
3.226347 3.271120 5.078302 162 156 142
0.582970 1.071073 -3.104272 86 69 63
2.062156 4.616089 2.119025 244 242 236
1.402781 1.492287 -2.826562 50 51 62
1.146991 3.195976 4.838089 178 172 157
0.143205 2.265497 -2.641913 72 70 71
0.269063 5.004400 -0.748711 121 106 102
2.236957 3.414227 5.129609 135 127 114
1.336574 2.531260 -4.176277 135 104 86
-1.410194 6.234075 1.799502 231 229 227
0.659966 1.723984 -2.704982 143 147 153
0.895231 -2.747968 -0.956526 177 175 176
0.712966 3.344739 -3.612972 163 142 141
-5.493559 3.906711 -3.254506 150 135 123
0.941055 3.104762 4.761215 217 212 207
-0.543465 4.439094 -3.473534 171 155 151
1.083062 4.593114 1.287783 242 242 237
0.864627 1.085215 -2.974218 72 65 70
2.266743 3.593020 4.909998 184 179 176
0.761194 3.515392 -3.647614 140 115 110
0.680669 3.663346 2.851189 253 253 253
2.488646 3.511706 5.175265 151 145 131
6.413836 -1.002555 -5.682674 80 55 44
1.094964 4.544142 1.275517 242 242 237
1.139272 1.829875 -2.662943 127 132 145
0.262730 3.094717 4.069257 200 204 210
0.017478 2.665875 5.038311 131 129 125
2.194760 4.280826 2.803980 247 247 247
3.038105 3.813458 5.072927 239 237 227
1.280936 4.656655 1.314569 240 239 235
-0.496072 3.326186 2.738722 245 244 241
3.178944 3.489419 5.279415 213 213 208
2.507004 4.504628 2.880604 250 250 250
3.087902 3.779254 5.025489 193 187 179
2.691674 3.669055 4.953026 212 210 208
0.568012 4.403988 1.213139 242 241 237
1.132427 3.062657 -3.890266 143 98 64
-0.299844 3.568201 2.587988 254 253 251
3.576334 5.025319 0.989420 254 254 254
-0.108216 3.780029 1.317318 253 253 250
0.931716 5.517289 1.295098 255 255 255
2.485981 4.757317 2.488821 251 251 251
2.721298 5.329200 1.205927 223 221 215
1.771292 5.186050 0.634547 236 236 231
1.040739 2.274461 -2.524762 74 73 78
-0.579688 3.829704 1.334892 252 252 252
3.366828 5.018373 -0.707697 132 123 120
2.866133 4.827140 2.479743 229 230 233
0.724475 4.746922 0.613494 218 216 208
5.183748 -1.315940 -5.541620 15 6 4
1.245709 2.201779 -2.273971 116 115 119
3.639670 3.800892 0.995407 241 236 233
0.255748 1.086523 -2.991561 26 23 29
2.356472 4.686949 2.286558 243 244 244
3.539354 4.543007 -0.026611 205 201 202
3.233574 3.642442 4.905000 199 198 198
2.101590 9.253355 0.241785 112 100 93
1.449021 2.122845 -2.350693 149 153 161
2.849363 5.375408 1.207725 252 252 247
-0.112096 2.337423 -4.185338 171 162 162
2.466504 4.911742 2.382923 242 243 240
-0.859247 4.394220 -0.042464 171 162 154
3.233574 3.642442 4.905000 199 198 198
3.317590 4.865394 -0.360280 147 137 130
0.938929 2.733056 -3.020833 19 10 12
0.719238 -1.648423 -0.884071 251 251 249
2.214500 1.928101 3.877148 186 184 178
2.435621 4.905516 1.847257 207 206 208
-0.701617 4.245097 -0.123353 138 127 117
3.393167 3.324948 4.813759 245 246 249
4.604520 3.117303 -3.749539 37 14 7
1.055177 2.526318 -2.537773 166 166 174
3.517796 4.482199 -0.029996 207 205 203
-0.201837 4.585482 -0.354697 136 124 117
2.910887 1.165977 -4.617504 152 118 97
-0.086483 4.079835 1.155649 231 230 233
-0.688729 4.369077 -0.428795 126 113 102
1.224846 2.071928 -2.355437 104 82 70
1.756843 1.113660 2.914573 129 125 113
2.244112 3.561793 5.066947 183 179 157
1.322265 1.815997 -2.675048 132 128 130
0.395949 1.619086 -2.734170 98 89 89
0.076255 1.640016 -3.016718 22 13 16
1.251344 2.105566 -2.494290 67 59 64
-0.189297 4.705451 -0.777542 125 110 99
3.231530 3.482356 5.198137 168 165 159
-0.269589 3.036892 3.651161 193 188 190
1.700912 2.645193 -4.056574 174 154 146
0.738599 2.023645 1.241556 250 250 245
0.455248 1.047984 -2.734547 152 110 86
-0.800361 2.469092 4.561290 157 151 134
-0.214677 3.898171 0.781420 203 203 202
-2.032499 5.131623 -2.810404 74 57 54
1.534999 3.312947 4.827354 214 211 208
2.345144 4.681311 2.470827 247 249 249
1.146315 1.875922 -2.640937 98 91 89
2.535213 6.276302 -2.144718 62 40 33
0.903412 4.278693 1.687371 242 240 236
2.289689 4.505416 2.288611 215 215 215
1.108322 1.879641 -2.640282 122 114 112
1.079373 4.827815 0.766138 247 247 243
2.229006 3.582042 4.937982 217 215 213
-0.921566 4.459305 -0.904278 145 135 128
2.434808 4.730980 2.394729 202 201 206
0.864419 1.870076 -2.651434 117 112 109
3.038730 6.722745 -2.418356 72 45 30
0.911482 4.866507 0.536488 203 202 199
-0.280351 5.757716 -2.557664 68 48 47
2.613743 5.001605 1.478377 243 241 237
-0.152714 2.593587 -4.087827 168 156 154
1.335495 5.062943 0.098343 179 174 169
-0.193670 3.942494 1.272172 214 215 218
0.466274 1.257395 -2.884237 92 87 87
-0.024381 2.234356 -1.389533 114 109 115
1.791292 2.747131 -0.424912 115 103 98
0.466342 1.256167 -2.884223 92 87 87
3.625149 2.283063 4.719092 207 206 202
1.315146 3.956760 2.792306 208 214 220
