ply
format ascii 1.0
element vertex 1221
property float x
property float y
property float z
property uint8 red
property uint8 green
property uint8 blue
end_header
4.771260 -3.286071 -0.973046 145 139 142
0.127393 1.132324 -2.987400 121 109 106
1.899650 -4.312361 -2.314699 157 156 159
3.293701 -3.091088 -2.908965 68 57 61
-0.176432 1.578854 -2.690786 110 101 97
-0.192284 1.645150 -2.583793 183 178 176
1.215093 2.114644 -2.488959 134 127 129
1.328422 1.521166 -2.728599 179 177 183
0.210579 2.374027 -1.266453 224 223 230
-0.099944 1.419387 -2.929224 162 142 132
0.497741 -4.600958 -3.032557 59 52 54
-0.098608 1.578241 -2.733981 208 206 207
0.281937 1.453635 -4.049757 167 153 146
0.259907 1.658928 -4.299952 146 93 65
0.883026 2.730467 -2.987549 64 45 46
2.305136 -3.055408 -4.780304 47 39 44
1.517274 1.743049 -2.767500 199 166 135
3.534331 -5.600688 -6.398909 27 11 11
3.534331 -5.600688 -6.398909 27 11 11
1.046995 1.156232 -2.904428 209 192 179
-0.269667 1.617798 -2.676767 148 99 60
0.230246 1.585410 -4.129282 146 102 76
0.084609 1.417760 -3.812979 157 108 70
1.159868 1.300237 -2.805577 211 210 214
0.948763 0.799107 -3.706873 164 161 167
-0.095800 2.305702 -1.571927 187 186 191
0.888444 1.998417 -2.437766 101 100 109
-0.197182 -4.055712 -4.692737 49 42 44
-0.155354 1.582478 -2.767117 160 151 147
-1.298775 1.221359 0.466534 41 32 35
0.463216 -3.270581 -6.397198 52 32 20
0.944489 2.742820 -3.021305 100 81 76
2.616621 -5.892013 -3.049421 142 141 146
-0.075097 2.200769 -2.920442 166 126 87
0.147480 2.299783 -1.291587 182 181 188
0.114486 2.290329 -1.282517 190 189 194
0.422342 -3.589510 -5.393737 33 19 18
0.577494 -4.208815 -3.341372 43 34 34
-0.042812 2.235264 -1.344682 202 201 208
-0.240037 1.636097 -2.780851 138 99 85
0.819412 2.411408 -1.357669 170 162 167
0.213560 2.346321 -1.203835 201 200 203
-0.230215 1.904448 -1.890274 101 100 107
-0.205940 1.820558 -2.185768 92 88 93
0.843268 2.445871 -1.360431 193 158 143
0.805441 2.390058 -1.378747 223 222 225
-0.054414 1.354329 -2.923772 109 104 107
-0.173565 2.309178 -3.022783 177 134 94
0.838773 2.386028 -1.355797 193 154 121
0.408261 2.509361 -1.390839 226 223 231
0.955980 2.128309 -2.538077 83 81 87
6.334435 -1.904072 -2.525789 63 56 58
0.432617 -3.648451 -5.214987 44 30 31
6.009698 0.003906 -4.158718 221 213 197
5.808631 0.400739 -4.852096 158 108 76
0.213690 1.313630 -3.923518 150 104 73
-0.216155 1.715537 -2.472964 165 160 157
6.616183 -1.220091 -4.784978 112 104 103
0.367172 -3.136769 -6.280375 145 103 84
3.213717 -3.977161 2.198631 189 187 183
0.196884 2.355630 -1.259568 197 198 207
-0.037496 2.225165 -2.832988 143 118 103
0.363301 1.017303 -3.152590 162 156 161
3.683894 -6.063349 -6.748548 0 0 0
3.683894 -6.063349 -6.748548 0 0 0
1.363046 1.976602 -2.591100 164 161 166
3.396368 -2.050097 -5.816571 79 67 63
-0.043823 1.356652 -2.869981 90 87 90
-0.321790 1.623512 -2.454197 163 143 135
6.569499 -3.580998 -5.539408 41 28 28
3.402609 -3.896361 2.186127 175 170 173
-1.439839 1.887084 0.502446 45 33 32
1.239790 2.107068 -2.360544 149 139 142
0.855658 2.705643 -2.895918 95 76 79
3.035426 -3.581596 2.283706 191 189 189
1.042469 -1.417237 1.037173 50 42 49
-0.422709 -1.784137 1.168725 196 194 192
3.333528 -4.517275 -0.086162 196 193 197
3.637048 -1.979610 -5.928242 67 51 51
0.675243 1.016103 -2.965328 191 153 107
0.371336 2.386188 -1.143348 209 207 214
-0.120374 2.178073 -1.409974 194 193 200
6.036642 -3.396011 1.546811 38 31 32
6.387800 -3.585520 1.532101 62 55 56
2.364072 -6.022494 -0.462152 146 143 149
5.847026 0.230596 -3.723774 240 235 228
5.116624 1.938453 -4.232874 163 113 84
5.059447 2.011817 -4.181273 160 111 82
-0.055140 2.214631 -1.333046 202 201 207
6.475591 -3.764305 2.206114 213 211 207
3.365507 -4.432272 -0.024390 52 42 52
1.575820 -4.416869 -2.347073 114 113 116
5.918673 -0.917360 -1.370594 214 207 204
5.917634 -0.817503 -1.612846 210 205 202
6.060658 0.946944 -4.995865 155 105 76
1.166436 2.079829 -2.466255 145 139 146
0.188104 1.401307 -4.255405 141 91 57
-0.169235 2.407647 -3.319329 170 124 84
5.877456 -0.761423 -1.368260 223 221 218
5.863070 -0.704570 -1.490669 225 220 217
3.324979 -3.188190 -2.717277 83 74 79
0.117492 1.482543 -4.436505 141 92 63
5.953383 -0.739502 -1.606308 114 108 112
-0.028078 2.363101 -3.019395 174 128 88
0.830725 1.074265 -2.944341 202 179 156
-0.304785 1.982841 -1.743218 97 88 88
-0.111181 2.478688 -3.215931 179 132 96
3.122958 -3.960396 2.164062 52 45 44
3.944075 -3.053369 -1.886492 157 155 159
1.887846 -4.757499 -2.504614 116 113 119
6.690933 -1.152831 -4.972841 45 38 40
0.935762 2.227678 -1.852937 187 163 150
0.627745 2.600327 -1.671833 200 166 133
3.470543 -3.032753 -2.362449 93 88 90
-0.129547 2.309245 -3.202256 173 128 90
0.638209 2.429353 -1.361408 226 225 230
0.640919 2.430510 -1.367515 226 225 230
0.231248 0.685287 -4.550531 161 107 66
1.292056 2.115575 -2.429335 192 189 190
-0.131137 1.526578 -2.761266 166 162 164
-0.508817 -1.451500 0.819140 13 12 19
-0.508817 -1.451500 0.819140 13 12 19
4.314287 -3.149679 -2.064544 112 106 113
0.308654 2.379461 -2.638091 139 123 123
5.149416 -3.195341 -0.884650 109 100 103
5.858281 -0.737701 -1.530377 217 212 211
6.479443 -0.611574 -5.343631 83 51 40
1.300735 1.529375 -2.684826 184 183 188
0.804585 2.404025 -1.353730 224 221 227
1.427795 1.864597 -2.689280 204 201 208
0.596521 0.997864 -3.042498 206 182 166
0.237802 1.073304 -2.892371 146 138 140
-0.045577 2.201815 -2.867218 128 106 92
3.344453 -3.791546 2.295398 66 60 63
5.947414 0.370359 -4.939205 147 104 80
0.257537 1.071703 -2.972753 152 147 157
0.183338 1.061354 -2.952605 173 132 94
3.295125 -6.341450 1.801437 202 197 199
-1.429970 1.488847 0.963983 202 200 201
-0.531763 -1.565788 0.230960 76 71 75
6.447549 -3.142600 0.465312 37 28 31
4.957138 -3.285050 -0.376173 115 106 106
5.099303 -3.057319 -1.176489 105 99 99
0.644693 -4.450700 -3.357995 43 34 37
1.406466 1.652760 -2.720332 187 181 192
0.262748 1.083424 -2.955882 129 126 133
0.255157 1.086491 -2.940800 129 126 133
-0.000237 2.259935 -1.271423 205 204 209
-0.072921 2.203909 -1.366260 153 150 157
-0.077219 2.203836 -1.361542 153 150 157
4.776803 -3.114822 -1.272019 116 109 111
0.470783 2.400715 -1.350351 224 223 228
1.057588 2.224421 -2.420471 111 105 107
-0.265299 2.070651 -1.428618 175 173 174
-0.217132 1.675813 -2.581732 152 140 137
-0.113985 2.249022 -2.967892 167 122 89
1.047777 2.176002 -2.546991 90 85 92
0.144038 1.458291 -4.409451 144 98 70
5.984737 -5.437176 1.338045 75 68 70
0.995327 3.214231 -3.700713 193 159 128
-0.602788 1.762188 -4.187252 184 146 106
3.352993 -1.668537 -6.864852 177 136 95
0.822483 1.150509 -2.895102 117 115 125
4.274314 -3.148372 -1.946220 106 100 105
0.084737 2.327680 -1.310940 218 217 224
-0.117716 1.512620 -2.939158 153 141 138
0.994952 3.280410 -3.720696 57 39 26
0.396172 2.516623 -1.501993 222 220 227
5.278367 2.123147 -4.512633 183 140 98
0.590002 1.575023 -2.771538 125 123 133
0.530458 1.587968 -2.687056 125 123 133
0.313440 2.516501 -1.908924 177 169 176
0.940680 2.118392 -2.345055 90 87 95
0.684904 2.453312 -1.841760 220 219 226
6.448109 -4.924444 1.228313 70 63 63
6.448109 -4.924444 1.228313 70 63 63
-0.307632 1.845489 -2.505476 142 124 114
0.089002 2.274712 -1.294395 189 188 193
1.043942 2.178665 -2.463982 52 51 55
3.500170 -4.173498 2.382628 74 72 73
2.218467 -3.101834 -4.720444 42 33 33
0.352284 2.419919 -1.264968 212 216 224
0.392661 -5.530005 -0.533899 104 98 104
-1.823135 -9.084537 -1.468487 64 59 59
0.486551 -3.272672 -6.361288 21 8 7
1.374634 1.495308 -2.756919 97 97 108
1.304008 2.013280 -2.550865 190 191 195
3.355604 -4.413846 -0.048652 127 122 130
3.159167 -5.632748 1.678936 109 103 110
3.338824 -1.918573 -4.717178 210 198 197
2.655579 -1.331311 -3.921148 210 198 197
0.282134 -3.151398 -6.179735 80 58 48
0.836340 2.405900 -1.345891 180 144 115
0.681521 1.037971 -2.955522 219 197 181
1.373076 1.967244 -2.568612 190 158 136
1.325341 2.106278 -2.448021 142 130 129
-0.055289 2.217475 -1.355191 147 144 152
-0.055289 2.217475 -1.355191 147 144 152
3.064476 -3.581021 2.267803 185 180 182
3.377125 -3.795779 2.212539 183 178 180
2.754418 -5.219862 1.620315 123 119 124
4.631481 -3.194222 -1.389737 105 100 103
5.815667 -0.717886 -1.320748 240 235 234
-0.055560 2.213037 -1.386497 194 193 200
3.794847 -4.054695 1.186054 80 74 79
6.116980 -0.203564 -4.275404 195 184 169
2.245685 -3.036896 -4.547260 25 12 19
3.634711 -1.880838 -5.881071 150 112 92
5.956551 -0.701021 -1.677050 216 210 207
0.151548 1.095832 -3.029397 185 145 106
0.575446 2.822745 -3.945142 176 136 95
-0.425747 -1.755852 1.134395 74 66 71
3.432441 -3.287341 -3.405341 48 42 47
3.298647 -1.852633 -6.156565 168 122 85
0.905148 3.232081 -3.738592 194 161 131
-0.100426 2.245952 -2.806148 38 24 25
-0.080513 2.252630 -2.845836 38 24 25
3.146080 -3.804363 2.357692 223 221 220
0.441888 0.959730 -3.239263 190 151 107
0.448256 -2.611207 -7.840667 189 145 98
5.816409 -0.651292 -1.494680 229 227 225
5.939173 0.014273 -3.849721 206 196 190
1.192976 2.080834 -2.532392 37 36 39
5.336030 -0.222567 -3.688550 219 212 207
6.358024 -1.117857 -4.650471 62 53 53
0.744899 0.991470 -3.101741 213 193 182
0.744899 0.991470 -3.101741 213 193 182
4.686295 -3.326360 -0.828839 131 126 128
0.715193 -0.997401 -3.044712 52 44 49
0.643692 1.063370 -2.946774 167 161 168
5.633313 -4.509952 2.172220 202 200 201
-0.719997 -0.990923 0.319355 78 72 75
10.429726 -21.715569 -3.300168 128 125 128
3.326173 -2.025144 -5.627855 58 48 51
0.875782 2.788843 -3.090670 39 16 12
3.413177 -4.714533 1.816334 207 205 206
6.008271 -0.005945 -3.991822 205 192 185
6.398862 -0.711450 -5.353622 143 108 89
0.959687 2.371961 -1.484786 0 0 0
0.090927 2.297976 -1.273168 207 206 213
5.086337 2.192637 -4.202810 172 121 77
1.451670 1.846420 -2.657923 195 157 125
0.128751 2.323265 -1.285128 184 183 190
2.466655 -7.334936 0.862169 70 66 73
5.362180 1.778416 -4.440652 162 113 74
-0.102006 -0.731478 0.878827 89 86 90
0.084405 1.115403 -3.037225 181 135 85
6.272403 0.001191 -5.822588 187 148 111
1.174857 2.171698 -2.549656 109 103 109
-1.261146 1.367405 -0.238645 0 0 0
5.828827 -0.795230 -1.310841 121 112 115
1.414566 1.626469 -2.702227 201 186 177
4.254467 -3.974143 0.071720 129 127 128
6.261972 -1.929196 -2.520328 63 53 53
3.538563 -1.833296 -5.771658 144 111 89
0.152799 1.094455 -2.860411 184 157 142
0.910865 1.168490 -2.872552 156 153 159
0.574448 1.023003 -2.964664 200 179 165
-0.177600 1.567302 -2.736012 153 141 138
2.053062 -5.067610 0.941158 95 92 96
4.873015 -4.253307 1.292737 72 64 69
5.477546 1.212866 -4.541896 156 108 84
4.979926 2.446842 -4.099957 161 112 75
1.174784 2.106297 -2.531200 82 79 87
-0.674054 1.086062 1.082122 0 0 0
0.049308 2.280759 -1.305189 180 177 185
0.073706 1.224559 -3.152772 157 122 96
0.900213 2.686225 -3.002132 0 0 0
1.300737 1.865481 -2.631146 126 124 133
-0.134568 1.465023 -2.992645 41 19 12
-0.612477 -1.259241 0.819173 17 14 21
6.252648 -3.093531 0.048560 66 55 56
6.521435 -1.284705 -5.432779 22 6 6
0.022848 -2.450346 -7.837147 200 167 138
0.497034 2.408998 -1.230521 228 227 232
5.601017 -0.288460 -3.729239 219 212 207
5.714067 -3.678846 -11.502612 200 164 133
8.831289 -5.281456 -7.139440 45 33 34
-0.139507 1.517703 -2.766419 190 184 181
1.150067 2.140478 -2.491186 118 115 117
0.132078 1.128638 -2.949219 127 114 110
1.382357 1.888044 -2.635480 210 207 214
-0.167625 1.646648 -2.990815 139 89 58
6.368533 -3.377574 0.724793 62 53 54
-0.156523 -2.003937 -7.014239 200 167 138
2.203434 -1.842627 -4.232588 0 0 0
0.767573 0.968677 -3.145055 199 180 165
2.495440 -4.960192 1.580370 102 99 103
0.497274 -1.533832 1.266129 114 112 115
0.537655 -0.673990 1.032027 105 100 102
1.428267 1.530841 -2.771935 205 186 166
1.104759 -2.425191 -4.625110 0 0 0
-0.192604 1.631503 -2.663524 157 145 140
-0.020196 1.287391 -3.017886 161 119 89
-0.286913 1.879676 -2.140180 154 142 138
0.238133 1.494249 -4.418633 143 97 71
-0.001747 2.248690 -1.337169 178 177 186
0.258610 2.369377 -1.246829 189 189 198
0.073153 2.424471 -3.416574 176 130 91
0.105640 1.302474 -2.923578 94 89 98
-0.035033 1.310833 -2.925701 67 60 60
-0.093912 2.171227 -1.402234 190 189 195
-0.046715 2.637052 -1.888083 99 78 74
0.929669 3.043634 -3.370336 61 39 35
2.945762 -3.988365 2.208730 210 210 207
3.068767 -3.917801 2.242895 184 184 179
1.264774 2.093722 -2.425421 192 188 187
0.151607 2.301636 -1.283715 192 191 196
-0.096014 1.409181 -3.021084 161 115 81
-0.143204 1.528085 -2.824868 150 140 135
5.290709 1.927488 -4.367384 159 111 80
3.364563 -2.386081 -5.070750 10 2 3
0.515528 2.638566 -2.582762 207 180 157
0.877333 3.265498 -3.752988 183 146 114
0.905397 1.111938 -2.912228 197 166 135
11.621960 -16.213503 -5.499623 239 240 244
0.058349 1.141183 -2.965416 128 95 60
-0.174760 1.512040 -2.934865 145 104 79
2.727530 -3.610351 0.047467 149 145 148
2.969659 -3.966526 2.216392 179 175 174
4.551062 -3.224323 -1.429610 117 109 114
1.158388 2.166830 -2.522055 119 113 118
-0.069365 2.227575 -1.335042 201 200 206
-0.300588 1.947482 -1.799598 151 145 141
-0.262111 2.045915 -1.584454 107 102 104
0.117938 1.114108 -3.031670 0 0 0
0.852044 2.644566 -1.969213 0 0 0
0.878010 2.722612 -2.978249 45 24 23
3.340185 -1.685663 -6.774635 183 141 104
0.218889 2.395084 -1.332382 0 0 0
6.175745 -0.252090 -5.159683 90 63 47
0.351483 2.375226 -1.233337 196 196 204
-0.114186 2.182857 -1.403297 195 194 201
0.688640 2.410618 -1.290988 209 203 208
0.435524 2.391210 -1.195611 210 208 212
-0.139189 1.495311 -2.834520 140 128 125
0.403449 2.613629 -2.321637 109 85 80
-0.068130 1.409715 -4.176178 158 110 77
0.854365 2.392869 -1.377050 186 153 126
6.046138 0.268904 -5.032191 146 98 69
0.263578 1.078293 -2.953555 137 131 138
-0.062343 1.444739 -3.041622 138 124 117
1.002137 3.184918 -3.676717 204 174 144
2.821753 -2.171522 -5.885353 161 115 85
0.806295 3.239558 -3.646894 179 141 109
-0.033660 2.383123 -2.599876 195 159 118
0.353443 1.406175 -4.603878 39 18 13
4.745036 -3.371224 -0.842525 139 133 135
-0.398304 -1.803733 0.838516 0 0 0
-0.841483 -0.799379 0.344526 0 0 0
1.273650 1.656522 -2.660976 161 158 168
1.280642 1.655224 -2.668189 161 158 168
-0.267993 1.976625 -1.730273 159 152 151
-0.340706 1.943287 -1.776195 152 147 144
-2.139816 2.059688 0.890908 110 109 114
0.454810 1.119976 -2.879966 118 116 124
3.158196 -2.366664 -4.819084 0 0 0
-0.246962 1.846051 -2.128648 185 180 179
0.120726 2.284446 -4.110605 181 138 96
3.371045 -2.339078 -5.241943 4 0 3
0.620990 1.038868 -2.937359 197 182 177
6.667948 -1.546917 -4.468923 43 34 37
0.231567 2.386908 -1.391271 214 213 220
-0.055646 1.871082 -3.146080 147 101 73
-0.176094 1.597420 -2.653271 168 161 160
2.951660 -5.339945 1.648547 103 100 104
0.430411 1.077431 -2.941791 146 143 155
0.217722 1.517729 -4.533769 98 66 45
0.870846 1.083439 -2.949454 197 179 166
0.931376 1.086175 -3.033856 130 125 134
-0.124775 1.443424 -2.960609 40 16 12
-0.124775 1.443424 -2.960609 40 16 12
0.058181 2.434875 -2.595109 194 159 132
3.028294 -4.073455 2.152720 154 149 148
0.159261 2.337017 -1.278302 182 181 192
0.335615 -2.931803 -6.723457 167 120 81
-0.072933 -2.193890 -6.437415 193 161 131
2.053592 0.461381 -4.827761 191 158 117
3.104589 -1.847263 -5.187002 51 41 43
-0.018433 0.378054 0.957174 0 0 0
0.185209 -3.101884 -6.786666 189 156 122
-0.057035 1.469750 -2.864864 115 107 112
-0.267073 1.559306 -2.810225 152 105 78
0.781056 1.143176 -4.945481 151 103 65
3.025896 -2.302164 -4.563360 44 37 39
1.352002 1.509959 -2.745104 178 173 178
0.602229 2.580633 -1.603646 198 163 137
0.925007 2.717619 -3.028579 50 31 30
0.246937 2.466417 -2.744303 145 124 119
0.009795 2.357584 -2.599983 133 109 102
0.980434 3.304708 -3.754730 104 81 68
3.140715 -3.877609 2.305085 191 188 187
1.016472 -4.157513 -7.133359 28 12 14
4.819730 2.687469 -3.925641 92 54 43
4.837454 2.677629 -3.967328 161 118 98
4.659091 2.713292 -3.838291 173 131 112
0.563148 1.001271 -3.025047 199 175 163
6.204925 -2.004207 -2.314583 59 47 51
0.371388 2.384026 -1.181882 212 209 217
0.363271 2.383087 -1.177741 212 209 215
0.026160 2.224942 -1.396092 197 196 199
-0.123058 2.159898 -1.404672 182 178 184
0.979685 1.179131 -2.891748 169 167 175
1.376072 2.135173 -2.679529 125 117 122
-0.134241 2.176143 -1.408413 192 191 197
0.201090 2.355761 -1.263547 175 174 183
1.140810 2.094686 -2.453877 139 131 138
4.546417 3.120282 -3.487597 227 222 217
-0.307246 1.958605 -1.819286 65 54 54
0.409707 -3.522216 -5.724264 33 20 18
0.834977 1.206535 -2.888905 113 110 122
1.530199 2.941569 -3.826874 122 93 86
0.055850 2.463057 -2.459474 146 123 121
0.741067 -3.978595 1.338235 67 61 68
3.248992 -3.637072 2.251288 175 170 174
2.259413 -4.718073 1.547549 90 85 92
3.225619 -5.822039 1.688211 115 113 114
2.903703 -5.299122 1.640890 115 113 114
3.426996 -2.453197 -5.256873 18 7 13
0.720143 -1.228549 -3.295107 46 36 44
0.914032 1.091288 -2.952523 191 167 145
-0.187733 2.112948 -1.485704 135 132 138
-0.213980 2.105332 -1.480039 136 131 139
-0.122356 1.418875 -2.911861 129 115 112
3.468387 -3.781926 2.272437 180 178 176
2.017686 -5.560640 1.510400 89 88 91
1.138606 -2.641826 0.984816 109 106 110
0.523031 2.399024 -1.253925 213 210 218
1.381845 1.460335 -2.813612 187 181 188
-0.596505 2.181878 -0.905596 148 147 153
-0.160499 1.429679 -2.862497 53 19 3
4.403825 -3.609566 -0.674493 148 142 149
4.410187 -3.562768 -0.669864 120 114 119
3.397223 -2.498886 -5.164173 56 46 54
0.880029 -4.308290 1.416698 0 0 0
-0.081168 -1.112523 -3.678933 36 24 25
0.438397 -3.626344 -5.619135 27 18 21
1.140946 2.101340 -2.514740 90 82 89
-0.543527 1.142321 -4.585895 180 134 93
1.202894 2.216095 -2.191059 192 174 156
-0.108754 1.506798 -2.795239 183 181 182
0.191033 2.500278 -2.519517 152 131 130
0.292581 1.426564 -4.105134 143 92 66
0.192666 1.499852 -4.202405 144 96 67
0.927794 2.717978 -3.031314 52 31 30
0.014625 -1.888963 -6.402460 165 118 77
1.100346 1.897825 -2.663454 107 104 115
0.653377 2.655392 -3.494280 196 162 129
3.105728 -3.913435 2.255887 182 177 175
3.338227 -3.816476 2.288463 197 191 191
7.842686 -11.748449 2.344646 103 101 104
3.319657 -4.311499 -0.001994 160 154 161
-1.418544 0.919537 -0.637058 47 41 47
-0.534683 -0.189153 -1.947614 38 27 33
0.340724 -3.440485 -5.797955 75 65 64
3.987077 3.019421 -3.365451 150 108 93
0.601613 2.259232 -1.517634 184 160 142
1.450790 1.980860 -2.632436 182 152 127
6.427412 -3.786022 2.219190 75 70 69
4.712935 3.151766 -3.599793 242 232 228
0.113464 2.293172 -1.308340 205 204 209
0.934584 2.693571 -2.959010 121 96 90
3.432810 -3.921454 2.383109 183 181 179
6.067464 -0.142515 -3.888267 242 235 228
6.007731 0.004963 -4.161863 218 210 197
-1.351130 2.054769 -0.480759 152 147 149
-0.987050 -0.221777 1.097180 72 72 72
2.172072 -2.099631 -5.582944 147 98 76
0.331217 -3.382273 -5.444364 24 12 16
6.458033 -4.073765 1.489754 63 54 54
0.065663 -0.597220 -3.156518 153 109 81
0.277872 1.327395 -4.062218 146 98 67
-0.102726 2.182388 -2.827666 170 125 93
3.692650 -3.334379 -1.997466 161 159 164
3.489843 -3.713451 -2.467010 168 167 172
0.880374 1.209661 -2.853212 111 107 118
0.240467 1.088874 -2.946456 125 120 131
-0.125240 1.432590 -2.989336 39 16 18
1.026095 2.764475 -3.073465 210 177 150
-0.235448 2.606786 -3.367564 186 141 101
0.190296 1.073541 -2.984307 178 152 128
0.702747 -3.849960 0.819667 14 8 16
0.705147 -3.841769 0.817821 14 8 16
1.483647 2.668969 -4.433104 195 158 128
0.955016 1.468771 -2.719256 113 109 124
0.654458 1.000532 -2.995232 189 153 118
0.053447 2.328573 -2.916528 188 149 115
5.348307 1.630442 -4.649261 175 130 92
2.946286 -1.967100 -5.914105 173 137 110
0.341737 -3.026467 -5.857205 30 18 19
-0.157673 1.556307 -2.717418 167 162 162
0.987249 3.231365 -3.757752 146 108 82
3.360687 -3.750897 2.235543 181 173 178
3.004268 -3.770079 2.243961 182 180 176
2.205396 -5.177435 1.540426 86 83 87
6.512488 -3.168417 0.360152 63 54 54
5.807386 -0.690551 -1.226502 170 165 163
3.429323 -2.283840 -5.163887 32 20 21
-2.328398 1.658680 0.346248 237 228 231
-0.204325 -0.916583 -2.797256 32 25 27
0.484670 1.198136 -2.513179 199 173 156
0.976316 2.704584 -3.006974 108 84 78
7.258691 -5.185214 2.345013 78 73 72
6.275337 -3.815156 2.258873 196 191 193
0.081277 2.362932 -0.988075 0 0 0
1.374299 1.501983 -2.781554 181 178 184
0.219915 2.364326 -1.255452 170 169 176
0.639049 1.062755 -2.876997 196 176 168
0.577225 2.007311 -2.538044 78 71 73
-2.214559 1.560409 0.922493 204 202 201
3.396138 -3.268653 -2.322948 135 129 136
4.706368 3.553174 -3.800507 161 113 89
0.006219 2.226482 -1.361113 197 196 201
1.062742 2.075753 -2.524097 97 91 102
0.362319 1.938394 -2.357117 175 173 174
-0.555684 -1.559288 1.185636 200 195 197
1.561095 -4.574694 0.917094 91 88 92
0.523173 -3.578269 0.829612 7 4 12
5.690202 -3.766075 1.474742 22 16 19
3.354496 -2.807295 -3.718182 41 32 30
5.394836 1.369092 -4.496410 148 100 67
-0.240690 2.101032 -1.519763 147 141 146
5.401309 1.679061 -4.652422 179 135 101
0.173111 -3.040048 -6.164866 109 67 52
3.396758 -1.871184 -6.460576 162 116 83
1.997665 -3.179829 -4.501159 37 28 31
6.608778 -4.133171 2.041573 50 44 49
6.608778 -4.133171 2.041573 50 44 49
3.047154 -4.553012 1.911497 208 206 204
6.406796 -0.486897 -4.060209 216 209 204
7.504285 -5.819996 1.158694 68 60 62
1.262037 2.025836 -2.549709 175 172 176
-0.176519 2.146301 -1.436544 175 173 179
-1.187104 0.453479 1.082365 204 202 202
0.721386 1.172997 -5.879639 155 105 74
3.329910 -3.965429 2.141051 177 171 173
3.263433 -2.411366 -5.096215 38 26 32
-0.032489 -0.415970 -2.322462 48 40 45
1.608413 -2.027837 -4.371629 48 38 46
-1.231608 0.468125 -1.133561 40 30 36
-0.112917 1.464354 -2.822143 106 98 102
6.797504 -10.114061 2.204643 92 86 91
9.328098 -10.892356 1.394067 77 73 77
0.053343 2.270273 -1.301706 0 0 0
-0.230066 2.064462 -1.497372 160 156 159
4.813866 -4.799466 1.286273 36 30 35
-0.083748 1.991689 -1.854593 145 139 141
0.915546 2.675387 -2.993129 164 147 143
2.757016 -4.431742 -8.556378 142 94 68
1.004180 1.442521 -2.744958 108 104 119
1.513650 1.771547 -2.766400 197 190 189
-0.302394 2.711064 -3.887741 178 133 93
2.396347 2.160263 -3.428555 105 97 99
-0.029652 1.374176 -3.108207 40 19 16
0.094109 1.132944 -3.050258 176 130 89
-0.389170 2.807789 -3.691892 181 138 96
4.021663 -3.468006 -1.632126 158 152 157
0.209645 1.523271 -2.899335 88 85 95
1.433509 1.879276 -2.973310 95 92 102
2.962924 -1.749000 -7.247920 179 140 112
2.302197 -3.040057 -4.641432 58 50 55
5.317792 -2.400914 -4.999024 30 14 14
6.190861 -1.987827 -2.455690 46 38 38
6.183323 -1.892015 -2.537993 55 43 37
0.137128 2.299368 -1.342133 156 154 161
-0.106071 2.241702 -1.215563 195 193 199
-0.052694 2.186879 -1.427248 121 115 126
6.466747 -3.780377 2.168411 68 60 60
3.702725 -4.822194 1.125934 78 71 73
4.242523 -3.469171 -0.810277 130 125 127
1.501794 1.349001 -2.937211 173 139 113
0.862496 1.137997 -2.889060 153 146 149
-0.211845 2.117031 -1.447550 122 114 119
-0.296462 1.969922 -1.728326 139 132 131
3.084933 -3.884904 2.300076 220 218 216
0.152428 2.325297 -1.301050 165 162 170
3.129918 -4.011270 2.120225 165 160 157
6.030697 -3.554251 1.536738 29 22 24
3.570435 -3.284914 -1.742567 112 106 111
3.257747 -3.095957 -2.807603 61 54 53
6.084855 0.045656 -5.069444 137 95 78
-0.011467 1.349005 -3.053962 102 86 84
-0.344669 1.995633 -1.743516 113 101 102
4.239309 3.774039 -3.489084 162 114 81
0.273607 1.380759 -3.682772 153 105 74
3.016448 -2.516228 -6.379491 146 102 74
0.595936 1.101206 -2.923827 107 103 113
0.806862 2.685822 -2.987795 199 165 132
-0.466203 2.788009 -3.815927 172 129 89
-0.016948 1.308151 -2.956542 67 56 60
-0.058731 2.158987 -2.912318 162 116 86
3.272715 0.970155 -4.304564 93 74 54
0.413742 2.385253 -1.245567 169 169 173
2.465958 -2.561107 1.126255 69 62 69
4.304611 -3.014416 1.891878 80 73 75
0.525052 0.137721 0.684262 66 60 59
3.286279 -2.047759 -5.758699 71 62 57
1.402541 1.953250 -2.600899 179 145 118
3.139493 -4.280660 -0.104087 176 173 178
6.178043 -1.042393 -4.489587 124 113 114
2.965176 -3.099884 -5.801250 58 50 57
-1.870737 0.686250 -0.742877 19 7 9
2.809064 -5.691745 1.718813 201 197 198
-1.711161 1.254372 1.001118 199 194 196
7.430197 -11.301407 1.184435 98 95 100
7.793309 -5.720909 1.602617 25 21 25
1.483521 1.334863 -2.936586 185 148 116
-0.020934 2.293653 -2.715282 117 85 76
6.345111 -1.184607 -4.405794 42 35 34
7.427073 -5.758902 1.162647 0 0 0
0.143896 -1.819891 1.244765 89 84 87
6.448413 -3.861947 2.229074 80 73 72
3.314807 -4.316079 -0.047642 19 13 20
3.834109 -5.226924 1.139071 42 36 40
4.240711 -5.023609 1.198205 34 29 31
5.925361 -0.891063 -1.307362 107 102 99
-0.711404 0.198702 0.961694 65 60 62
-0.302986 1.975936 -1.701651 137 128 128
5.305706 1.496419 -4.409532 145 97 68
-1.170606 -0.649395 0.389231 175 175 179
5.892001 0.196711 -4.072874 207 194 177
-0.279395 2.095249 -1.508825 0 0 0
-0.284616 2.732502 -3.657101 177 130 91
3.557403 -3.315212 -3.769817 38 28 34
6.303128 -3.517715 0.856884 54 45 45
6.349854 -3.832894 -5.442423 0 0 0
1.022883 1.147774 -2.904993 134 122 114
5.776631 0.642254 -4.804255 164 116 86
1.070116 2.061329 -2.455444 88 84 92
3.160503 -2.350720 -5.047674 112 103 106
3.245154 -2.412459 -5.130703 112 103 106
1.054840 -1.255392 -3.425012 242 234 239
1.774419 -3.266231 -5.668396 25 19 24
-1.471840 0.744689 -0.783058 0 0 0
1.464081 1.829956 -2.697871 198 185 179
0.997845 1.115408 -2.978532 145 133 137
0.750625 1.012436 -3.043106 190 165 148
-0.299435 2.116820 -1.388764 157 151 158
0.012647 2.254409 -2.806135 116 92 90
0.045410 2.242849 -2.864201 113 90 88
0.009095 2.261921 -2.814396 71 44 38
3.122523 -3.708553 2.309153 183 181 179
3.197396 -3.811816 2.291405 146 141 140
3.299316 -4.805653 1.118612 82 76 81
1.183302 2.322374 -1.764007 90 58 54
0.062200 2.284185 -1.305045 151 148 156
-0.919720 2.070470 -0.852181 134 128 133
-0.354094 2.063175 -1.465728 87 80 84
7.069260 -5.965898 2.392605 0 0 0
4.413968 -3.571284 -0.757738 130 123 125
-0.322125 1.834084 -2.214369 126 114 111
-0.194325 1.731449 -2.535382 130 116 113
-0.365825 2.830545 -3.963859 177 134 109
0.174586 1.272181 -3.375340 161 109 70
-0.009364 1.404442 -3.119620 148 105 77
3.346657 -4.351111 -0.166213 13 5 16
-1.400327 -0.222929 -1.770657 13 0 9
-0.415572 1.994800 -1.447532 170 164 173
3.322289 -4.002373 2.312302 141 136 135
3.211646 -2.521343 -5.191579 39 28 35
-0.310533 -0.440273 -2.259961 229 222 222
1.333920 1.983325 -2.584497 213 208 210
-0.096393 2.158206 -1.432292 170 164 172
3.246206 -3.963179 2.274016 186 181 180
0.924203 2.695777 -3.063270 198 170 146
5.900427 -4.402215 2.212655 190 188 186
-0.787610 -1.255863 0.853426 0 0 0
4.821289 2.608718 -3.973984 154 109 82
0.284661 1.076483 -2.977120 95 89 100
-0.236108 2.316628 -1.080794 194 193 199
-0.236108 2.316628 -1.080794 194 193 199
0.419934 2.601896 -3.145660 189 155 120
6.074220 -0.335359 -3.660627 212 203 199
3.754520 -2.503833 1.809315 77 72 73
-0.027024 2.128285 -1.408541 127 117 123
5.244977 2.713666 -5.326441 167 163 172
0.713831 0.979167 -3.123067 186 162 144
-0.006481 1.753221 -3.160151 147 107 89
6.071413 -6.255845 1.344163 26 19 24
5.861431 -0.056365 -3.856695 231 226 215
-0.355839 2.820058 -3.813058 179 133 99
-1.525321 -0.062434 0.829651 0 0 0
3.488415 -1.589489 -5.496238 142 96 68
-0.302482 2.024736 -1.708206 111 102 100
3.387631 -3.114338 -3.049177 58 49 49
1.000560 1.118430 -2.944168 143 125 111
-0.212106 2.104007 -1.514630 157 154 160
3.375982 -4.755072 1.050254 72 66 70
-2.821344 1.825859 0.630935 189 175 172
3.549399 -1.947809 -5.815146 60 50 56
0.845138 -1.311562 1.402537 199 196 195
1.976205 -1.573221 1.584422 193 190 190
0.562181 -0.621207 1.053825 29 21 26
0.332322 2.553723 -1.706092 192 184 191
3.567346 -2.558036 -5.612586 45 37 42
1.385412 -0.548054 -3.227845 0 0 0
1.148404 1.095340 -3.070942 196 176 166
3.386896 -2.356975 -5.248876 11 0 6
0.851908 1.126303 -2.850188 194 169 152
3.157449 -3.785417 2.316999 185 182 179
0.704830 2.401646 -1.304536 224 222 223
-1.953585 0.665437 0.591302 177 176 179
0.061531 2.296468 -1.304965 199 198 203
3.487686 -3.662955 -1.493694 147 142 146
1.355019 1.659575 -2.665293 188 177 174
0.080670 1.117993 -3.131487 168 117 75
4.273301 -3.903334 -1.629731 138 131 133
0.215520 2.768991 -3.605855 188 150 114
0.974339 3.327012 -3.728696 208 175 146
-1.966844 0.635873 0.926988 60 52 57
-0.285872 1.910760 -2.106584 110 98 95
1.367170 1.818151 -2.648330 136 135 146
3.370693 -2.243037 -5.803438 70 63 69
2.100635 -2.777606 1.104663 69 63 70
1.169981 2.151509 -2.284034 165 155 155
-0.152928 2.129460 -1.424905 140 134 139
0.219923 1.761973 -2.777379 91 83 90
0.020055 2.328446 -2.730237 49 24 13
-0.018008 2.172966 -2.876151 106 86 80
0.453915 2.612527 -1.893064 176 145 121
-0.341901 1.938904 -1.788288 122 115 112
0.076335 1.275615 -3.017179 92 84 89
-0.095915 1.493569 -2.785354 82 76 81
0.154386 3.902463 -3.263203 225 201 179
-0.882428 3.268020 -2.106342 217 191 169
-0.389840 2.758249 -3.927768 109 62 36
0.202159 1.082989 -3.072532 168 125 91
0.406512 2.564232 -2.609599 149 128 119
-0.611206 1.696109 -2.140086 121 107 105
-0.033583 2.465937 -2.270057 143 122 112
0.642941 2.438728 -1.279059 230 230 230
0.358075 2.576174 -1.855663 186 175 179
-0.386092 2.027917 -1.590444 108 99 103
-0.434571 1.933072 -1.833828 105 95 92
-0.363269 3.082759 -3.889711 157 109 69
0.110185 1.325608 -3.269108 26 7 7
-0.239117 2.587587 -3.690293 174 129 89
0.140753 2.497608 -2.159476 139 124 122
6.237426 -3.181336 0.621028 53 46 45
1.482066 1.735390 -2.609380 180 141 104
0.229323 0.660875 -4.584947 139 85 50
0.159237 2.453292 -2.659205 82 66 62
-1.160123 -0.350790 0.413639 175 174 178
1.085675 -1.411694 1.439012 198 196 194
0.140685 1.708283 -3.352818 149 107 80
-1.559430 0.069435 0.500495 0 0 0
3.808931 -2.115350 -6.032174 33 21 22
0.875376 3.170151 -3.854909 200 166 133
4.061085 3.710987 -3.544062 179 135 98
1.266230 0.683671 -3.937665 182 138 93
1.212623 2.048464 -2.537606 102 101 111
1.052503 -0.073792 -2.830568 41 25 25
3.437397 -2.483260 -5.208140 11 2 7
-0.153457 2.153564 -1.408619 130 125 131
-0.349258 1.932354 -1.799569 125 116 115
7.062961 -8.008209 2.397718 202 198 198
-2.610899 1.433843 0.832895 197 194 193
0.003079 2.262631 -1.342177 186 184 192
-0.222984 2.097751 -1.411066 174 171 171
0.147744 3.936498 -3.504045 210 186 164
-1.845851 0.442955 0.819025 77 74 78
-1.697582 0.644939 0.845848 27 21 26
-0.403535 2.711258 -3.994237 142 89 57
0.921698 -2.691827 0.922593 15 11 16
3.329207 -2.079914 -5.735470 24 11 18
6.344695 -0.466110 -5.296350 89 59 45
-0.080378 2.184983 -1.406196 116 113 120
4.390071 3.613001 -3.597061 167 120 89
-0.252222 2.079643 -1.456893 124 118 120
-1.144903 2.020677 -0.659974 116 107 110
3.612285 -3.616873 -1.876206 157 151 156
3.802241 -6.495228 1.774119 0 0 0
-0.615425 -1.060690 -2.826449 209 202 204
-2.839861 1.998570 0.650648 86 51 50
2.695780 -5.256693 1.703433 197 192 191
6.168105 -0.446229 -5.106916 71 42 36
-0.053152 1.619803 -3.107398 140 97 72
-0.140994 1.683564 -2.973763 70 38 24
-1.432955 -0.162704 0.474279 0 0 0
0.355036 1.020025 -3.071728 169 144 132
-0.460293 -1.680352 1.165341 69 65 69
5.754323 -0.620131 -1.239587 217 212 208
1.033640 2.005155 -2.338429 0 0 0
-1.832012 0.425287 0.810982 0 0 0
-0.197838 2.152935 -1.452007 164 161 167
3.393979 -3.329956 -3.311987 49 41 46
5.978287 -0.591496 -1.390561 219 212 209
0.501961 1.092800 -2.987592 101 98 108
-0.070024 1.852809 -3.106563 153 107 81
0.798073 2.411348 -1.339658 177 169 167
0.110372 1.542425 -4.405496 81 52 40
3.318129 -1.943944 -5.716615 46 36 30
3.569629 2.520517 -3.242704 148 106 84
-0.210479 -0.860034 1.233948 202 199 198
3.304445 -4.071791 2.140614 154 152 150
6.486616 -3.571825 1.636620 63 58 55
5.459031 2.188199 -4.176420 95 76 73
0.650144 2.400796 -1.265554 155 150 149
-0.151462 2.224603 -1.240984 125 122 128
0.740529 1.413291 -2.353882 170 136 111
-0.063009 2.208928 -1.344435 180 177 183
0.705750 1.038977 -2.960541 193 170 153
3.711209 -3.585596 0.155272 87 80 82
5.875872 -0.245231 -3.958117 183 173 158
1.286236 -0.399719 -3.291073 50 34 28
1.261368 2.088090 -2.430766 181 174 171
-0.207642 2.022955 -1.648357 141 134 133
0.015079 2.291089 -2.781641 42 22 12
3.650937 -1.600775 -5.460110 48 32 30
0.880744 2.267210 -1.751678 171 151 137
4.303292 4.781130 -3.392419 148 103 79
0.357020 2.570838 -1.799327 190 177 176
3.454928 -2.441774 -5.507771 42 32 39
0.826312 2.674536 -3.111073 198 166 135
0.399733 4.642634 -3.155357 196 171 163
-0.065818 1.366130 -2.900062 50 41 41
-0.055320 1.424359 -2.968781 93 81 79
3.096491 -4.047282 2.159786 176 171 168
-0.205836 2.104130 -1.465557 122 114 119
3.881999 4.635700 -3.191721 148 102 70
3.328719 -4.833363 1.054081 6 3 11
0.877450 3.462402 -3.538193 193 159 128
0.179241 2.337095 -1.255056 205 205 214
3.505982 -1.906315 -5.833423 126 95 77
-0.729631 2.095528 -0.998257 120 114 121
3.214836 -1.679228 -7.410132 166 120 88
4.551476 -2.687248 -4.364217 36 27 27
3.150963 -3.770053 2.139981 186 179 181
6.250051 -3.751319 2.251128 191 188 185
2.123746 -3.723152 -0.062066 173 171 174
5.819170 -0.560374 -1.564224 184 177 174
6.270873 -1.964635 -2.437075 43 38 30
6.282193 -1.930331 -2.442806 63 54 51
2.795131 -0.452123 -3.049226 155 148 145
-0.060753 -1.118071 -2.979166 46 38 43
0.226146 2.351423 -1.267547 201 200 205
-0.354245 1.974924 -1.520682 172 166 167
0.245079 1.065161 -2.974723 110 100 101
-0.037829 1.309419 -2.907773 55 45 49
0.065279 2.338549 -2.751254 119 94 88
0.158997 2.305539 -2.921842 112 90 83
3.380448 -4.503402 1.803512 202 197 198
5.970870 -4.196464 2.214573 191 189 187
3.216487 -2.493665 -5.208245 92 83 86
1.152668 1.345359 -2.790085 156 151 159
0.295823 2.556962 -1.749513 190 178 180
-0.143181 1.567082 -2.722324 149 142 145
-0.028511 2.142375 -2.920692 175 144 128
0.863939 -1.903444 0.983702 34 26 31
0.863939 -1.903444 0.983702 34 26 31
3.908415 -3.434470 -1.594208 135 130 132
3.808568 -3.365176 -1.564978 135 130 132
0.974748 2.293460 -1.732586 0 0 0
4.114770 4.237652 -3.347700 152 107 84
-0.320333 1.839536 -2.193768 106 95 93
0.164100 1.524163 -4.361822 111 77 63
4.141909 -3.427679 -1.447947 118 113 115
3.795733 4.100944 -1.059206 209 204 200
3.458319 4.331808 -0.949765 172 160 153
0.587246 2.430088 -1.258432 229 228 229
4.880813 1.915074 -4.120673 146 100 76
3.966584 4.456540 -3.240740 157 112 87
2.443553 -2.514735 -6.165350 130 92 75
0.755417 4.177351 -3.406954 208 175 150
0.419408 4.049161 -3.466733 221 200 179
3.462903 4.303627 -0.973714 225 225 222
1.222908 2.219205 -2.207414 180 162 151
3.892670 4.500949 -3.193799 152 105 82
-0.285706 3.120860 -4.017441 165 116 77
6.492090 -0.575349 -5.608122 150 109 82
6.492090 -0.575349 -5.608122 150 109 82
3.729377 3.898663 -0.654299 220 220 218
1.062213 2.399219 -1.648263 156 150 148
0.897285 1.162625 -2.965319 103 98 109
1.427406 1.718434 -2.718940 200 192 192
3.378570 -1.700458 -6.832008 154 104 73
2.797550 -1.870418 -5.668829 145 100 73
6.052265 0.546296 -6.465154 175 136 100
4.346248 0.357531 -5.387328 176 134 97
0.026437 1.919728 -2.386795 0 0 0
5.434302 1.801512 -4.463191 113 80 57
-0.725981 1.710843 -1.990958 117 103 102
3.959102 2.724243 -3.380479 75 48 41
6.279173 -1.993692 -2.394156 39 37 33
-0.191455 1.659472 -2.567854 152 146 147
3.291496 -1.908289 -5.795644 221 199 159
3.915152 4.636054 -3.178258 149 107 88
0.222831 4.572400 -3.179694 197 175 166
4.976103 -4.346025 1.335198 29 22 27
1.202558 2.114838 -2.474421 85 79 80
0.441185 1.044310 -2.944389 116 106 116
5.975604 -4.001060 1.492979 29 21 26
1.923287 -2.398350 -5.874170 141 96 75
-0.547630 2.622591 -3.860458 166 117 80
4.150284 4.355755 -3.378785 157 111 84
0.001011 1.349949 -2.980654 58 51 52
3.639653 -3.637231 -1.438109 138 135 135
-0.120341 1.547900 -2.900180 108 95 91
0.049760 1.079424 -2.821913 0 0 0
0.072274 2.358385 -1.079002 222 221 226
0.216933 2.423321 -2.156753 125 113 112
5.967756 -0.081906 -3.066389 211 205 200
-0.106363 2.175590 -1.408296 161 159 165
-0.102307 2.173444 -1.413346 129 124 131
3.078759 -3.662487 2.274134 128 125 124
3.338945 -3.090998 -3.031580 64 55 56
0.092902 1.350834 -3.198200 158 113 90
1.165979 1.810236 -2.634418 102 97 106
3.054322 -3.986292 2.082087 153 148 145
2.891615 -4.557908 1.085927 77 71 78
3.301960 -4.788539 1.124553 79 73 80
6.385633 -4.098899 2.215838 71 67 68
3.368358 -4.457386 -0.124967 54 52 53
3.420835 -3.162240 0.220426 77 72 74
3.466319 -3.691671 -1.475829 152 147 149
1.107402 1.296166 -2.768417 192 188 191
1.203467 2.121782 -2.441078 98 91 90
0.472526 2.577891 -1.728124 197 187 186
1.009283 2.168259 -2.453184 67 61 64
-0.023210 1.274619 -2.913718 55 48 50
0.959885 2.776376 -3.041711 180 153 132
0.295746 3.965108 -3.381911 179 150 127
2.910072 -3.793497 2.217699 170 165 164
5.113127 1.823063 -4.255028 143 102 78
3.832299 4.913853 -2.908401 77 48 43
-0.273430 1.981260 -1.712123 123 116 113
0.018878 1.305226 -2.947581 83 76 78
1.675735 1.698255 -4.539634 111 99 96
3.519859 -3.646156 -1.474347 145 138 140
-0.095551 1.436648 -2.844237 83 75 80
0.015601 1.364502 -3.077936 88 73 62
0.390640 4.048738 -3.431362 186 159 141
4.204797 4.001275 -3.438246 154 110 80
2.626363 3.619861 -3.687632 175 135 100
-0.416020 2.522708 -3.158813 180 139 108
-0.355572 3.742128 -3.695585 177 144 117
-0.317780 3.110656 -3.942652 161 114 77
3.775551 4.043748 -1.024601 208 204 202
1.136709 1.692466 -2.701788 99 96 106
4.908402 -2.121755 -4.766294 23 9 10
-0.001081 1.913366 -2.306096 88 80 80
3.075797 -3.967657 2.214792 149 145 142
3.548305 -4.448235 1.127444 67 60 62
-0.189060 2.097959 -1.442563 163 160 163
3.197429 -3.794417 2.137556 70 62 67
-0.646538 -1.235157 1.097092 0 0 0
2.168373 -1.906973 1.580350 191 186 187
0.342522 2.384158 -1.231959 209 206 212
0.686650 2.581702 -3.192806 185 151 128
-0.016539 2.167544 -2.908467 166 130 115
3.147337 -3.840953 2.114881 72 64 68
1.953195 -2.428633 -3.998026 43 35 39
-1.366618 1.763294 -1.180839 98 89 87
-0.077862 1.578939 -2.719556 79 71 78
5.064351 2.092123 -4.197642 147 104 79
4.113935 -3.515505 -7.792901 49 37 38
0.552253 1.049601 -2.933115 113 105 112
-1.695494 0.263944 0.788050 25 19 26
-1.695494 0.263944 0.788050 25 19 26
4.631931 -0.970783 -4.952128 30 21 20
2.670105 -2.516348 -6.238408 126 84 61
-0.091537 4.463888 -3.284648 197 177 169
6.342309 -3.051047 0.374184 23 13 15
-0.142167 1.548878 -2.879383 104 91 89
1.085759 2.404744 -1.661003 148 143 143
6.278193 -3.081222 0.123492 53 44 45
0.295448 2.360171 -2.800246 102 83 79
1.459539 1.919752 -3.006399 93 88 96
0.139827 1.304444 -2.993489 69 63 68
3.007049 3.821331 -0.870283 203 198 195
4.751179 0.076940 -2.805173 0 0 0
0.847006 2.671815 -2.933084 122 112 111
6.124464 -0.335950 -5.136311 116 82 68
7.171671 -5.686558 0.999713 0 0 0
4.355861 -3.078905 1.882818 68 63 65
3.582089 -4.612854 -0.098091 23 17 22
3.477385 -3.665750 -1.539791 142 134 139
5.847162 -0.738935 -1.525012 213 208 205
6.029292 -0.175007 -3.852199 225 218 209
0.855620 1.312256 -2.539928 168 133 109
-0.097451 2.121367 -1.516936 123 115 120
-0.277840 2.020527 -1.581146 128 121 122
-0.426425 1.985550 -1.522667 77 67 72
-0.048960 1.952622 -2.090062 111 105 105
0.184158 3.952958 -3.500042 215 192 169
3.180186 -3.994651 2.295863 0 0 0
2.836068 -3.552855 2.252346 248 246 242
0.574337 -1.327283 1.323509 192 187 186
4.103643 -3.516702 -1.318752 115 108 111
3.500426 -3.648766 -1.567896 117 112 115
4.131996 4.160224 -3.338115 81 48 37
-0.025471 2.203798 -2.819031 99 83 75
-0.024991 2.184502 -2.901342 31 11 8
0.442998 4.030246 -3.349818 201 172 149
6.398082 -3.695005 1.568971 30 23 25
1.282427 1.744779 -2.632892 139 133 139
-0.073973 1.550285 -2.741038 74 69 77
-0.097145 1.416341 -2.844260 83 76 81
1.139320 2.769416 -3.309374 140 115 110
-0.030221 1.710448 -3.118885 157 122 103
-0.183106 4.415820 -3.214687 227 213 208
4.442313 -3.851351 1.301614 21 16 21
4.017308 -3.469511 -1.544867 121 115 117
3.740282 3.849903 -0.721892 174 162 159
3.696863 5.063757 -2.999416 142 97 73
-0.027490 1.321288 -2.928086 52 42 50
0.211366 1.678193 -3.394628 154 115 93
0.677515 2.433011 -1.287548 165 166 178
1.114893 2.388907 -1.980387 79 74 73
2.815955 6.709948 -2.385294 72 45 30
-0.197960 2.126452 -1.368281 118 116 121
0.819149 2.614109 -2.774756 166 125 92
1.405757 4.955863 1.063424 252 252 249
1.148676 1.253383 -2.851192 183 182 182
0.854554 1.081437 -2.961501 80 77 81
1.431905 1.630191 -2.735717 153 154 161
1.691535 4.023789 5.218737 211 210 213
-0.078898 2.174095 -1.387963 114 109 115
1.436644 1.652572 -2.746671 155 154 161
1.404455 1.644202 -2.784463 68 63 61
1.177699 2.216732 -2.155707 79 69 67
0.747105 1.132679 -2.854167 137 136 145
-0.863532 2.435470 4.397711 208 206 204
1.999958 5.520927 -0.118909 144 137 134
4.626440 -3.021918 -9.832221 196 158 133
3.343074 5.078346 1.009384 254 254 254
0.188517 2.325064 -1.260528 152 149 153
2.379995 3.602518 5.273299 196 196 191
2.860791 3.513688 5.111310 176 174 168
1.460895 1.854410 -2.668446 170 125 87
2.898899 3.581264 5.130176 169 167 161
-1.298110 -4.386834 -7.913448 151 102 65
0.902182 2.268076 -4.094100 94 65 53
0.445187 0.591463 -3.297833 146 103 76
-0.142780 1.893345 -2.276078 73 71 67
0.226245 2.338659 -1.253049 183 184 191
0.285147 2.969143 4.644687 210 210 208
2.860850 3.621732 5.154341 207 205 199
0.788185 1.496873 -2.714228 119 120 135
-0.811035 4.500753 -0.873612 164 157 147
3.502567 2.726408 4.331787 244 245 247
0.971598 -1.576476 -3.695254 182 169 161
4.201277 5.351136 -2.194281 174 163 153
0.158814 1.069362 -2.946794 87 81 85
2.787841 -5.958217 -8.687487 22 10 11
0.921837 3.018261 4.922927 128 125 112
0.098497 1.160878 -2.969263 40 35 37
-0.743699 -0.997376 1.104595 0 0 0
3.310017 3.010601 4.669933 241 242 244
1.006074 0.911974 -3.327213 175 140 106
0.733532 1.548356 -2.714767 117 111 109
-0.058849 1.303607 -3.008850 65 58 57
1.119429 1.232380 -2.855648 182 181 189
1.015709 4.906262 6.819348 122 116 108
-0.036924 1.405138 -3.029577 61 52 52
4.671274 2.834361 -3.844934 165 119 89
-0.581719 4.198359 0.264817 203 202 205
0.096371 3.881956 -3.466654 174 153 148
1.292045 1.410769 -2.689938 199 187 181
0.493050 3.988353 2.282573 253 253 250
2.106992 3.603861 4.977915 195 193 185
1.340448 1.437133 -2.746107 148 146 151
0.557438 2.923892 4.775297 171 165 148
2.805698 3.758154 5.329042 207 207 202
1.151393 2.152445 -2.425686 185 182 188
1.841362 3.510936 4.825412 222 218 212
3.551530 4.397416 0.309442 236 236 236
0.387048 -5.452468 -0.896051 102 94 101
0.387903 2.822023 4.801652 135 129 117
1.860496 5.599172 -0.479548 139 127 123
0.607562 1.027176 -2.986503 110 102 105
1.467469 1.591369 -2.831297 177 147 123
1.548958 4.251469 2.900044 215 215 219
0.692013 1.688613 4.458332 177 177 174
-0.364047 4.116210 1.109801 223 223 224
-0.259587 -3.419587 -6.341872 131 84 52
1.021063 4.169261 2.326957 253 254 252
3.380391 2.808989 4.587173 207 204 208
0.344687 -6.191354 1.263330 123 118 118
0.387339 1.027871 -2.950143 56 51 57
0.229078 -1.834516 -2.424593 66 37 22
0.343733 -5.420954 -0.483563 108 106 104
1.823196 3.389690 5.112497 161 156 151
-4.528016 -0.976395 -5.453866 81 49 37
1.931355 3.540791 4.846344 224 224 221
0.651815 1.631704 -2.677979 116 117 128
1.987085 3.590706 4.887377 224 224 221
1.272371 2.125834 -2.380243 189 188 191
1.776799 4.777310 1.648037 209 209 203
3.308884 4.754986 0.402611 212 214 214
-0.226633 2.670824 -3.670690 168 130 104
0.504968 4.835480 -0.260605 142 134 129
0.934412 -9.437894 0.517215 67 64 69
0.500847 4.897707 -0.292246 165 160 157
1.200431 2.107252 -2.474798 164 164 170
-0.305172 3.953471 1.088901 242 242 238
4.662357 3.332408 -3.791144 128 92 71
0.829904 2.607879 -3.017971 167 127 94
-0.211867 6.074770 1.777702 243 243 238
1.079651 2.157807 -2.482872 57 51 56
1.411954 1.673538 -2.701166 138 137 148
1.386303 3.364781 -3.355879 0 0 0
1.531116 1.972100 -4.508763 172 134 101
1.497050 4.975005 0.914497 246 246 241
3.079409 5.139082 1.232184 255 255 253
0.567142 2.640975 -2.255268 170 161 164
3.637265 3.549806 -0.079739 180 173 164
2.949112 5.992912 -0.219011 125 114 113
0.994408 5.111355 -0.347774 138 126 121
0.462551 1.546162 -2.707525 165 164 173
5.818592 -1.323746 -5.819809 23 10 16
0.878873 2.608119 -2.632240 69 60 63
0.331965 1.125520 -3.206189 150 113 86
0.290428 2.606087 -3.171864 156 122 93
-1.846221 -8.944519 -1.835570 61 53 51
0.618153 5.051021 -0.627339 133 121 114
0.918013 1.719841 -0.275695 18 2 0
0.074140 2.521099 -1.558213 55 36 36
-4.937257 0.529779 -4.504104 76 49 46
1.057687 4.206892 2.128380 197 197 192
0.048940 1.381319 -3.224846 138 100 80
0.801859 1.466060 -2.743096 67 67 73
-0.332487 2.845504 -3.856820 173 134 98
0.130162 2.476602 -1.349264 175 165 158
0.758875 2.871315 -5.582474 101 64 47
0.488348 -5.285270 -1.652016 69 64 66
7.072391 -1.350676 -6.636816 90 59 41
1.957409 6.653969 -5.996282 203 189 184
0.591502 -6.259554 0.682947 72 69 73
3.078850 3.497964 4.661108 243 245 245
6.288121 -2.113958 -2.336491 37 32 34
0.070542 1.198778 -3.096624 164 132 101
0.655448 2.922687 4.756205 211 210 203
0.524612 1.958764 -2.568373 115 116 125
2.363392 5.633677 -0.082939 169 163 164
1.453200 1.745754 -2.618133 182 141 106
1.498300 5.386362 -0.486250 170 161 155
-0.220960 -5.802781 -0.338824 72 63 61
2.804024 6.954243 -2.212605 39 25 24
-0.058447 1.557651 -2.759703 67 64 66
0.971534 2.565917 -2.988716 179 141 101
0.157780 1.146117 -3.103520 66 59 56
0.475585 -5.676395 0.610560 62 56 60
0.709884 3.573842 -3.778686 152 121 101
0.878873 2.608119 -2.632240 71 63 64
3.492158 2.586479 4.529338 234 234 231
0.954653 1.123336 -3.224884 0 0 0
2.921212 4.493432 0.395091 214 214 214
3.372368 5.455141 -1.519949 196 189 182
0.804858 2.513406 -1.465917 0 0 0
2.799882 4.954776 -1.418602 196 189 182
5.939810 -0.173337 -4.254140 173 160 151
-4.599340 -0.352835 -5.107751 138 96 77
0.319745 4.008925 -3.444470 187 166 161
-0.136416 1.312643 -2.824897 68 63 65
1.207167 1.703030 -2.041353 197 182 171
0.218024 3.948528 -3.469598 163 143 138
1.154809 1.902922 -1.617824 197 182 171
2.026785 3.452806 5.188856 146 143 137
3.067261 5.014738 1.455076 246 248 248
0.830035 1.834209 -2.608188 102 99 105
1.452711 1.750051 -2.694267 80 81 91
-0.162562 -3.440643 -6.169719 241 229 224
3.066006 5.014052 1.454505 246 248 248
3.130700 5.055277 1.210493 239 237 233
1.095744 1.180865 -2.894646 184 170 160
1.084537 2.135107 -2.517421 94 92 93
-1.437598 1.079478 -0.719356 158 112 85
3.446054 4.013525 1.334347 255 255 255
0.188013 2.339931 -1.276814 102 103 112
0.382345 -5.909835 0.668961 95 93 94
2.070164 3.495744 5.169092 151 149 141
0.403518 -4.271498 -3.738620 209 202 197
3.112617 5.260472 0.188007 189 187 187
1.197902 1.303965 -2.761014 193 154 118
3.213171 4.841253 1.126382 254 254 254
-0.215559 -0.908440 -2.499318 111 78 62
1.614096 5.529162 -0.550239 161 150 146
-1.406828 -5.606466 -6.750881 26 14 12
1.826152 3.489122 5.011937 211 210 197
0.634289 1.889559 -2.606416 125 123 131
0.961708 2.236926 -2.491330 84 79 81
-0.234519 -3.979181 -4.775601 44 35 40
5.911822 -0.854519 -1.335587 75 68 65
0.944824 2.535516 -2.815006 0 0 0
0.987684 5.207098 -0.573227 132 120 115
0.689352 1.249308 -2.905747 0 0 0
2.929996 3.719903 5.086614 219 218 213
2.044172 2.622943 -2.465199 54 35 32
1.337979 1.442271 -2.790109 198 195 202
-0.649215 3.610347 1.826996 253 253 253
0.481079 1.040153 -2.897994 136 138 148
1.360224 1.979718 -2.687332 174 175 178
3.034437 5.019910 1.091250 239 236 229
-0.147643 1.568390 -2.699569 136 122 122
1.236414 5.191349 -0.355560 135 124 120
1.173640 2.237237 -2.182891 183 181 184
5.037812 1.479693 -4.481704 127 86 63
2.279486 -3.011496 -4.762149 30 21 21
1.878320 2.524135 -2.157187 187 178 172
6.517516 -3.688521 2.044002 196 190 186
-0.549306 4.250363 0.293423 254 255 253
5.861811 0.149636 -3.766959 191 183 175
-0.212432 1.827026 -2.277683 75 70 70
-1.801329 -8.937943 -1.831087 125 118 115
1.009267 3.319825 -3.702048 204 171 148
1.293336 1.528339 -2.465912 194 182 175
-0.151476 1.478792 -2.835927 48 41 40
0.596783 -4.280914 -3.393074 44 38 37
3.532911 5.018198 -0.776629 143 129 122
0.929491 1.106467 -2.935364 194 173 159
-0.162134 1.599567 -2.630655 151 149 150
-0.239712 2.027448 -1.506705 185 180 185
-1.115848 4.215546 -0.511591 131 119 112
0.352731 1.042250 -2.845619 156 119 91
1.008857 1.172068 -2.879639 164 160 164
6.547026 -1.991605 -2.298050 62 57 56
-0.044555 2.403453 -3.171469 174 135 101
-0.396921 1.982236 -1.288383 0 0 0
2.855273 3.948782 5.079686 246 245 247
0.402444 2.566607 -1.662052 208 200 203
